ply
format ascii 1.0
element vertex 1219
property float x
property float y
property float z
property uchar red
property uchar green
property uchar blue
end_header
9.013068 9.329632 -0.104806 156 53 93
-2.965880 -4.641178 0.060771 240 226 248
9.544488 -9.979667 -0.157488 200 211 18
-3.015511 8.716263 0.180409 247 132 195
9.514791 -9.216206 -0.120872 127 246 5
4.668247 -9.529896 -0.003393 74 246 185
-9.557974 -7.649771 -0.056719 54 14 189
6.302961 3.019902 -0.115433 160 202 117
3.322422 6.170023 0.215793 197 227 133
6.515775 -1.869837 0.114623 169 205 123
1.775729 3.244038 -0.006141 85 90 132
2.650532 -7.195693 0.003620 80 32 221
-4.010412 -9.848018 0.065154 167 123 160
-2.022944 -6.279188 -0.113303 66 8 68
-2.300690 -2.401566 -0.103744 73 23 180
-0.086953 -0.939822 0.040621 0 47 39
6.121937 0.301156 0.035789 169 60 44
8.902225 2.824448 0.110530 11 68 85
-0.554374 -8.966280 0.069935 88 78 165
6.802111 -7.386811 -0.075637 210 52 207
2.534055 -7.042986 -0.082192 132 41 35
-9.293918 7.837867 0.067303 9 104 94
4.999136 -3.200568 -0.022670 37 118 105
6.201944 0.833344 -0.187281 17 8 116
8.640444 6.937116 -0.167743 251 254 239
-0.242342 -5.309473 -0.069694 4 178 105
-8.359577 -5.212973 -0.199896 149 64 85
-3.354394 -8.438906 0.076751 51 201 49
-3.227130 9.327007 0.079165 56 251 251
7.895935 -5.182601 0.036747 152 2 140
3.364369 6.551532 -0.149692 120 19 54
3.041111 4.579895 0.167602 14 222 15
7.778782 -3.259055 0.036719 45 163 40
7.737821 5.886176 0.105183 138 24 148
-6.523515 -7.589713 0.113558 52 147 21
3.096541 1.628340 -0.049417 105 154 142
1.024676 5.833262 -0.136248 139 225 201
6.458777 0.421458 -0.002124 152 34 50
-6.939108 6.039769 0.189512 192 163 120
2.375576 7.357093 -0.093396 91 253 40
-9.592475 7.342863 -0.004825 14 25 87
3.006644 -4.505691 0.002863 30 253 237
-5.004897 -8.362979 0.180859 84 11 184
-5.248391 -1.793147 -0.025204 91 223 211
-1.484086 -9.962799 -0.115046 214 85 222
6.002255 3.520721 0.092939 219 216 240
-4.733691 -2.087294 -0.061053 141 29 4
-9.435086 -1.223197 -0.123963 24 66 59
-6.987845 5.994517 0.169518 231 169 2
-8.726801 9.659260 -0.071330 37 30 227
-1.568489 1.327045 -0.100919 233 224 230
-4.285837 0.565521 -0.220239 134 84 247
-7.974697 8.362024 0.079676 196 132 85
-7.897663 -4.685220 0.005335 167 236 69
-1.843467 7.291319 -0.073783 60 173 252
-6.485562 -5.833261 -0.042152 195 194 102
-7.920672 6.935169 0.078022 8 39 120
-0.362459 7.297147 0.086592 215 196 203
-2.658904 4.746225 0.118715 60 13 139
6.409361 8.883580 -0.116391 157 137 135
4.689751 -6.682626 -0.030940 178 128 110
-5.510458 -0.539893 0.091805 97 172 165
-9.697762 -3.135129 0.026335 164 105 157
1.282906 -3.379264 -0.112933 12 66 237
1.913608 -8.613413 0.010932 22 139 178
4.797946 -0.192138 -0.112170 77 8 1
9.251935 6.963822 -0.034828 23 35 214
6.688686 3.749446 0.133425 236 204 240
7.385103 -6.723519 0.132148 97 29 193
-9.704079 4.652285 0.101934 93 69 123
-7.868489 5.416035 0.019561 236 13 155
4.256558 2.174717 -0.014454 234 137 53
-6.256501 -1.508127 -0.055714 214 6 18
-9.169879 -9.757463 0.096157 101 15 125
4.294795 -5.208106 0.017315 164 152 219
1.680146 -1.873829 -0.061406 43 198 192
7.317386 -9.641655 0.102890 218 221 43
-2.783249 -6.515611 0.104755 230 149 40
6.113246 -5.288675 0.119846 142 53 99
-7.172216 -9.392847 0.077751 174 171 67
8.127496 -0.981163 -0.068262 135 185 25
6.972698 -1.743449 0.038886 189 224 164
-8.585192 -9.294477 0.156287 77 253 47
-5.054545 -1.381500 -0.238364 151 161 129
-3.823652 1.923821 0.017038 118 179 24
-8.048560 7.773148 0.058946 137 167 238
9.865751 4.638337 0.096450 79 194 52
3.824036 -0.082853 0.124509 204 229 172
-6.873216 6.613658 0.017071 117 191 181
-8.269674 9.697371 0.010218 28 42 84
-8.218964 1.997836 -0.240177 148 5 34
-3.067924 8.166962 -0.081452 74 158 60
-3.288577 -4.664615 -0.185906 211 72 146
3.932976 1.004368 0.057205 208 139 121
-2.666679 5.926032 -0.158006 21 221 254
1.663143 4.773476 -0.138564 137 190 199
-9.301057 -9.491002 -0.137792 237 46 8
-9.609680 -3.344948 -0.036665 46 29 248
7.469668 -3.735425 -0.043121 112 87 45
-5.926895 -1.709519 -0.059196 233 56 124
-0.713491 6.126618 0.009889 174 232 91
5.713479 -8.891056 0.043355 129 66 59
3.847373 -5.367747 0.020979 23 34 40
0.636824 7.017091 0.001192 41 192 186
3.524648 2.658579 -0.048066 73 11 3
9.995223 -3.375677 -0.093682 189 228 37
7.821553 8.990476 0.096042 226 194 58
-4.822518 -0.293162 -0.030493 226 144 231
-2.489789 -2.324379 -0.120311 229 28 234
-2.374639 -5.372529 0.056099 135 180 253
6.864223 3.877551 0.037709 199 191 25
-2.014669 0.279550 -0.009633 8 112 76
7.855413 0.062647 0.017992 129 85 135
6.307788 -0.091228 0.064509 252 228 115
0.176843 0.419869 0.002537 83 60 169
-5.378774 -7.907579 -0.144593 170 89 182
-7.376858 9.917784 -0.102814 108 222 161
5.442214 -3.729308 -0.068126 194 211 45
-9.399826 2.046222 -0.065116 190 63 99
0.325334 -9.415658 0.151483 56 238 78
-9.023521 8.418588 -0.031884 161 229 54
-8.882353 2.091717 0.031345 75 11 184
1.216901 5.939815 -0.028676 67 41 194
-8.747870 -4.472554 0.092447 113 194 55
1.574261 2.789708 -0.103373 157 146 139
5.352618 9.869026 0.048030 128 150 45
-2.319378 2.578291 0.022613 221 112 199
5.271217 -0.573586 0.173945 51 162 186
-9.415038 -6.623076 0.001016 18 15 147
-4.350178 -3.494833 -0.024565 179 215 72
0.362569 -7.847969 -0.055438 149 39 165
-2.076868 3.936167 0.017966 2 209 21
-8.246858 3.764125 -0.020623 179 171 62
8.814675 -7.580398 -0.105330 16 252 33
-7.974486 8.760276 0.148562 213 114 101
9.080443 -6.561565 -0.024706 244 71 57
-0.492630 -1.087105 -0.125095 226 204 207
7.476824 3.489913 0.183103 46 3 100
-1.356426 7.394376 -0.068888 84 9 188
-2.284325 -7.076593 0.040689 47 251 241
4.472008 2.388522 0.084461 51 106 12
7.231833 0.358944 -0.002621 201 127 170
6.680008 6.163506 0.038679 2 129 169
-2.406150 2.406370 0.088754 142 92 170
-5.898998 3.723642 -0.062318 131 187 153
-5.238765 -7.014081 -0.002220 134 144 108
-6.514574 7.078865 -0.014128 240 136 205
1.139513 7.287738 0.196696 128 2 112
-5.763690 8.786040 -0.003282 84 173 28
-7.487596 2.764062 0.005992 58 54 112
6.353903 5.710262 0.049162 236 14 196
3.350845 5.975079 0.036767 91 102 114
2.110825 -9.050739 0.044815 148 221 129
2.076750 -6.109749 0.034767 7 89 75
-5.735572 8.382686 -0.009250 163 90 44
-4.022292 5.861992 0.018483 147 227 32
0.494094 -6.539026 0.163301 52 223 220
3.608295 9.948173 0.077495 127 150 231
-1.837439 -6.592901 0.009417 211 221 177
-3.815530 -2.666639 -0.070914 238 0 41
5.377847 -9.567510 -0.056061 106 53 111
-0.577328 -4.830806 0.086069 116 138 112
4.619725 -5.344745 0.005320 46 203 206
5.458974 4.317519 0.129671 0 176 190
5.275555 -9.009289 0.002964 102 190 49
4.976371 -2.903114 0.027008 170 89 219
9.432663 -0.093421 0.143428 13 49 215
-9.134508 0.825446 -0.014057 243 241 53
-2.931607 4.703442 0.206855 152 21 159
5.273250 -1.558017 -0.083899 93 9 189
2.673762 -8.133175 0.020820 201 65 129
3.863515 0.599753 -0.036977 54 108 170
-4.177154 -9.591176 0.080865 90 31 155
-5.387256 -8.179621 0.046117 145 84 119
-0.609097 7.511308 0.034625 217 18 220
3.781119 5.061809 0.071744 67 29 92
-3.650789 6.913161 0.017071 209 197 183
0.393398 -9.818558 -0.050370 48 146 207
-7.502481 4.480834 -0.016820 172 254 250
-8.343491 -9.937077 0.122760 229 186 124
0.071821 -6.600644 0.001493 41 146 106
8.107456 -2.853156 -0.004432 169 151 220
-6.792379 8.717468 -0.006175 130 42 196
-8.847834 3.108266 0.031554 103 112 190
1.186425 -0.515820 -0.019212 229 120 210
6.693450 3.755950 -0.011168 250 134 255
8.259654 -8.852630 0.112949 255 107 11
5.489330 1.999318 -0.058384 180 221 111
5.404264 -0.294794 -0.018860 38 183 88
-2.638750 -6.251267 0.132660 67 21 62
6.965351 9.055648 -0.057031 250 241 32
6.537584 -6.363798 0.000787 146 160 205
-9.833356 -2.052283 0.034243 117 190 206
2.399310 -3.267141 -0.049758 58 76 140
6.889108 -5.631593 -0.082308 67 105 91
2.918678 7.665814 0.053558 109 234 239
3.239460 6.518665 -0.009304 216 156 48
-7.408436 9.989326 0.263926 109 106 107
2.333604 7.981189 -0.028397 12 24 112
-3.377740 3.843905 0.101226 42 119 165
-1.422680 9.326265 0.057766 117 161 80
-4.539925 2.476429 -0.126129 178 173 112
9.090083 5.294614 0.062988 145 174 128
-7.883920 -5.703230 -0.114749 218 51 187
-6.636045 1.019865 -0.023920 225 254 2
4.609954 2.908411 -0.159718 151 15 160
-2.295807 3.858122 0.042682 167 252 198
-5.389754 -1.611926 -0.057571 204 133 202
8.250983 -4.123880 0.014118 4 166 165
4.527861 7.873040 0.066271 0 174 137
8.538842 1.002700 -0.141675 19 60 120
-3.117251 -9.347090 0.042879 163 157 138
7.327309 9.261089 -0.005166 52 22 73
-8.280774 -9.952189 -0.012404 144 66 204
-7.682094 -7.001870 -0.008505 100 202 19
-0.873171 -9.488377 0.042689 64 149 135
-1.570431 -8.111760 -0.068058 147 124 203
2.460283 -9.832097 0.149132 236 146 162
2.296000 -6.939572 0.051988 13 101 29
7.110883 9.458327 -0.167303 6 110 249
2.282687 1.189038 0.014681 217 171 117
-7.604088 9.910676 0.151829 7 31 225
-5.870660 -9.585308 0.011057 58 133 123
-2.184323 -2.470038 -0.071762 69 77 115
2.002543 -0.327741 -0.056829 249 22 158
-5.435271 -8.062953 0.302636 11 88 158
4.255407 -2.777844 0.064976 60 32 60
-3.282575 -9.984468 -0.165674 218 165 89
5.375151 -2.610477 -0.001524 66 132 17
6.278466 2.891768 -0.057010 210 125 100
7.558816 8.888843 -0.097272 141 8 71
-6.809062 7.182395 0.023671 165 207 94
2.714949 3.872811 -0.017226 29 39 238
-1.057424 -9.753706 0.035584 41 56 80
-6.006472 -1.551556 0.005446 106 242 53
1.746383 1.243123 0.054605 138 62 116
-0.374723 2.561220 0.082013 205 234 20
-7.322409 0.878012 0.006001 115 67 243
0.990851 -3.398373 0.082583 87 251 197
-9.649695 5.420459 -0.014393 97 87 109
5.681222 2.778227 -0.166917 119 247 192
6.496540 -5.870727 0.050457 42 104 249
-6.329164 -7.027249 -0.057384 128 144 109
-4.440781 -2.206354 -0.037513 60 153 63
-9.326895 3.882352 -0.037144 109 143 27
-0.876168 -3.519974 -0.008251 177 195 54
5.711546 4.548642 -0.053047 44 234 251
1.266381 0.518989 0.204465 20 160 38
8.623579 -6.793057 0.038653 34 78 243
3.500095 -6.794531 -0.039593 87 250 86
-2.841373 -1.637460 -0.043435 194 98 8
9.211363 6.701576 -0.028536 189 163 203
4.355448 1.697549 0.072643 44 52 209
-6.880978 -6.831611 -0.138452 137 66 92
7.358974 4.173765 -0.013820 73 86 203
2.080038 8.417916 -0.216009 209 218 103
6.183266 -3.573798 -0.039335 32 20 71
8.733681 -2.640353 0.127733 196 14 29
9.005360 -3.212337 -0.041733 59 6 220
-6.153007 7.499267 0.185409 49 220 202
0.659125 2.125871 0.075868 247 140 12
-6.798951 -7.819825 0.084648 167 146 101
1.276459 -7.739297 0.252568 229 216 96
9.102354 1.828914 0.074905 131 7 219
-4.070380 6.694743 0.142420 174 199 248
0.413677 8.666928 -0.082114 208 215 89
2.006655 7.998202 0.018432 90 117 177
5.879347 -3.566476 -0.100864 94 209 245
-9.688795 3.492384 -0.086746 210 50 208
5.286811 -9.338862 0.101165 42 147 203
-7.677884 6.747054 0.015683 95 250 219
-0.069061 5.816026 -0.068829 185 20 92
-6.592517 -8.989709 -0.080079 136 227 24
-2.339099 -5.794903 0.140202 19 34 202
1.784221 5.675206 -0.110253 11 28 243
-1.881538 -9.248816 -0.072293 57 15 25
7.420286 -5.582191 -0.019894 31 128 233
4.564226 6.529266 0.013271 117 82 147
-3.778249 -7.533543 -0.234299 48 148 57
9.978842 -0.102730 -0.153409 157 245 150
-8.136228 -5.226839 0.051911 84 26 246
-1.535325 8.115410 0.016877 207 242 212
4.299703 -9.237070 0.241854 90 158 162
3.467297 4.312142 -0.020036 171 169 163
-8.981668 2.847431 0.110566 114 255 192
-6.308487 7.212753 0.037700 95 108 59
9.502761 -1.311334 -0.067385 124 142 135
8.873884 -3.155105 -0.131298 54 32 120
3.572377 5.958635 -0.079429 184 153 139
-5.948659 -7.870104 -0.133375 18 120 163
0.609738 -4.822974 -0.132823 139 39 106
8.449120 -7.324502 -0.110033 130 246 54
-1.044498 -0.493197 0.070185 19 137 239
-2.414392 -6.750097 -0.084539 34 61 85
0.171586 -7.492055 0.113014 187 156 48
1.334990 3.363868 0.150564 64 102 160
3.370999 4.287074 0.062389 5 154 192
-8.266395 -6.073277 0.016095 233 109 88
-7.524857 -2.419706 -0.028652 65 143 129
-5.019089 -9.865462 0.265521 13 193 240
-7.994665 -5.115385 0.079381 25 88 210
9.264257 1.628928 0.107463 104 72 191
-6.899302 -7.731822 -0.051525 182 173 91
-7.299961 0.560913 0.007671 81 56 28
-8.366930 -7.698646 0.007214 32 135 202
7.183947 -7.773947 0.048240 172 230 180
5.574567 9.551460 -0.001441 15 187 21
-0.796985 3.924339 -0.077056 245 216 181
8.219210 -3.104798 0.121922 122 22 100
4.092096 8.730267 0.069873 152 101 37
-4.351142 -1.457704 -0.072116 94 31 122
7.053988 9.426546 -0.034431 112 186 154
2.305413 2.044729 0.072243 236 165 252
8.376940 4.927256 -0.014446 215 63 182
-3.183375 -9.865275 -0.046398 216 74 196
3.043451 -8.892855 0.016070 130 37 51
-9.868011 -5.360998 -0.072050 94 72 60
-5.831275 2.128620 -0.062087 156 29 7
5.870329 -2.624360 -0.182664 52 42 225
0.078355 0.412094 0.031960 245 29 126
5.386596 0.938080 0.118703 121 192 253
2.150298 -4.264391 -0.021830 143 243 253
1.995484 4.919253 -0.117339 141 59 201
8.719087 4.932735 -0.083690 238 245 112
-7.246133 -4.402140 0.035524 192 32 114
-8.874354 6.305411 -0.014781 247 208 28
9.761816 6.071186 -0.163253 194 128 212
-5.713469 -7.953379 -0.018346 10 249 99
7.054858 -9.535279 -0.043586 3 52 212
5.725051 9.108035 -0.013955 233 93 137
0.060723 3.754610 0.094318 220 124 192
-3.337994 3.958996 0.087232 16 34 172
-2.177181 -2.466537 0.066236 164 68 134
-7.845788 -1.251546 0.026665 250 5 139
-6.961770 -2.196023 -0.256621 109 196 54
-5.030540 6.820793 -0.107586 126 205 201
3.156226 -9.174971 -0.016507 186 223 204
-8.320821 6.784831 -0.126125 97 11 182
-3.741982 -2.496550 -0.042330 222 25 77
-0.311054 7.994416 -0.072510 9 187 115
0.163964 5.397903 0.011317 2 3 7
7.345464 3.692024 0.011049 192 225 0
6.749551 6.468020 0.116864 91 181 69
-6.287892 2.523811 -0.015499 221 179 20
-5.836905 8.305726 -0.052115 21 95 205
9.082023 -9.339581 0.075593 182 165 110
-3.207723 5.849008 -0.034632 5 251 111
8.910391 3.515404 0.041643 220 142 11
-7.028762 -4.816724 0.097292 24 2 157
7.060685 -4.422375 -0.135717 211 223 114
-4.363607 3.119812 0.029784 199 198 11
5.859587 9.619509 -0.024352 213 252 253
2.113434 -1.398975 0.026107 32 82 243
-1.453154 -5.427913 -0.021240 51 104 223
5.973139 8.206838 -0.013486 200 225 239
-4.021440 9.940384 0.093289 215 150 242
6.341081 -8.525449 0.011620 155 24 196
-7.496083 -2.258481 -0.004351 232 224 57
-4.017586 6.624911 -0.146852 83 91 244
-8.034036 3.263697 0.000040 181 245 71
-6.065050 0.192686 0.020785 11 255 48
0.198014 1.316614 0.207461 86 168 72
-4.049027 0.084943 0.071668 104 217 18
2.256467 8.492588 0.152153 224 163 185
-5.166081 9.611403 -0.056935 204 100 11
-0.608960 -8.706514 0.068790 175 6 92
1.921783 3.708453 0.134261 92 4 179
-1.125458 -5.643088 -0.069660 214 116 135
-8.215007 7.239679 -0.031351 146 23 8
-4.944267 -5.761459 0.057919 62 171 189
-4.745669 -4.506316 0.205479 129 80 137
-3.012988 9.978805 0.045062 203 178 161
3.533164 -0.741408 0.104531 201 249 172
-1.045029 6.162133 -0.104622 55 79 58
1.575349 -9.963215 0.040491 67 120 165
5.981185 -3.844991 0.126412 49 26 220
4.697890 -0.913475 -0.160146 36 28 192
7.351723 -4.501008 -0.192216 179 134 124
7.944621 2.748006 -0.225132 133 148 3
-8.452102 6.435136 -0.031645 205 253 26
7.513766 -7.716562 -0.023627 203 122 185
-1.141461 -4.838923 0.070930 33 36 99
6.227810 -5.475880 0.069512 220 247 19
6.698403 -6.879168 -0.159972 221 242 123
6.847688 9.085516 -0.192657 254 130 87
-1.318071 2.340359 -0.191950 78 16 179
-4.490402 4.050315 0.148962 76 105 41
-6.984259 5.644165 0.157918 103 119 170
-3.208018 0.754403 0.058703 156 233 207
-2.662543 -0.654293 -0.052263 51 108 32
5.332136 -9.596546 0.158759 84 250 35
-6.640660 -3.541461 -0.137403 29 64 197
4.368907 4.464913 -0.037410 216 153 7
-8.546737 3.916991 0.103917 58 146 82
-9.318758 1.758392 -0.125490 62 116 45
-3.338874 -9.068520 -0.028765 15 109 61
-9.099354 -0.481393 -0.162647 77 152 248
4.314475 0.523466 0.178702 184 74 24
3.063330 1.388412 -0.086484 17 14 38
-3.185679 9.307884 -0.078849 231 158 202
9.991625 -2.285898 0.097922 130 1 144
-0.186456 7.243103 -0.023020 5 119 78
4.101641 7.310298 -0.141462 166 167 210
-3.081363 -6.021599 -0.123065 74 156 116
9.095226 -1.990095 -0.028691 102 224 220
-8.538573 -3.476747 -0.045445 28 221 66
-8.250193 0.949384 0.035239 149 136 82
-3.690463 -7.635017 -0.064098 36 86 137
-2.137794 8.965828 0.011866 253 22 17
-4.544063 9.973539 -0.056672 170 0 13
7.629244 -2.956374 0.153849 147 12 29
-5.896962 -2.029512 -0.152044 84 96 38
3.333180 -7.560158 -0.019341 153 51 205
-1.104000 4.846348 0.175144 175 41 185
6.049290 3.501008 0.081308 42 21 120
-2.022016 9.689889 0.086581 6 111 157
9.481380 -1.826658 0.022328 48 112 218
-2.620327 8.648301 -0.070782 90 191 73
-5.050037 8.423349 -0.112959 200 193 137
4.228940 -0.448199 -0.035984 229 61 178
4.859856 1.235907 -0.030526 116 76 102
-9.694103 3.736738 0.050623 43 191 166
4.366209 5.625977 0.008964 48 51 21
9.216691 5.274088 0.113010 166 129 228
3.926323 -4.781668 -0.050798 47 60 126
9.188930 -3.441203 -0.028689 174 101 224
-1.582134 -2.809293 -0.060541 131 15 27
5.078360 -0.145074 0.013568 92 135 254
5.890510 -3.999088 -0.125212 181 169 71
-8.313160 1.809494 0.022716 65 7 148
-5.954471 -4.829682 -0.140901 84 13 5
-4.979801 4.725834 -0.005679 5 73 55
2.365248 0.251299 -0.044734 62 131 150
2.494800 -4.266783 -0.140518 42 207 183
6.971829 -6.198350 -0.049893 21 166 46
8.855776 0.928809 -0.145308 164 138 58
-4.413180 4.202755 0.166399 210 57 105
-6.708695 -3.731716 -0.020682 104 148 52
-2.748222 7.306987 -0.030852 75 107 2
9.536306 -9.556623 -0.134669 172 29 205
3.382265 5.987994 -0.066572 72 250 249
-2.729530 1.336450 -0.032245 174 222 161
1.665347 -9.706447 -0.031518 205 95 4
-0.452686 -6.062648 -0.214883 227 109 212
-9.047276 7.023703 0.097459 158 119 77
2.580093 4.768053 0.063739 181 138 119
8.717402 -6.548292 -0.129022 195 21 246
-5.815760 -0.526338 -0.032760 246 105 40
7.547921 -5.549564 0.091865 106 8 96
-9.917974 6.594462 -0.019927 243 76 70
-2.993838 2.623961 0.037510 223 206 103
-8.277446 6.359129 -0.087742 148 234 90
7.150298 -4.499257 0.182811 240 247 135
2.467230 -4.216243 -0.025107 55 95 86
6.238038 -5.211982 -0.066445 177 240 104
3.166428 -8.128082 0.057031 20 182 194
-4.776541 0.399494 -0.256722 22 108 125
-2.096657 -3.135184 0.013539 178 137 87
-1.730847 -6.121701 -0.179560 108 171 37
3.180949 2.396195 -0.086923 148 124 152
-4.219052 -3.385755 -0.027645 155 216 213
2.755044 7.451552 0.064727 177 148 33
-5.198599 -3.788418 0.164239 174 28 78
-0.954128 5.164723 -0.122338 37 25 247
9.646960 5.478910 -0.044832 183 213 63
0.843448 9.932970 0.145893 53 133 39
6.290230 -6.261279 0.059918 135 222 125
5.678322 5.321790 0.010244 128 240 43
8.233467 -6.945609 0.143136 80 57 104
9.669245 2.278741 0.065603 83 203 231
2.833080 -4.910316 -0.040448 81 115 82
1.726900 -2.629422 -0.060621 203 229 210
6.796609 4.832719 -0.059027 0 174 178
-3.058564 0.537466 -0.201174 255 90 214
3.654445 -7.677613 0.011312 225 143 174
-3.212751 8.848441 -0.045747 52 34 247
-9.452670 0.181581 -0.053002 120 123 225
-8.698134 0.219253 0.180158 139 107 232
5.403328 -2.390040 0.108754 147 53 17
3.954835 3.387751 0.162383 92 17 105
-8.156913 -2.916986 -0.068253 134 40 60
-5.449767 -0.703932 0.078208 216 177 178
1.578622 5.812209 -0.038689 191 110 7
2.443635 -4.462747 -0.211071 127 1 46
-2.499633 -1.929936 -0.034734 82 202 24
5.669923 1.524987 0.043248 53 43 43
-9.729639 -2.305972 0.070858 196 140 204
-6.348213 7.407933 -0.088672 196 110 156
4.533353 7.828695 -0.038301 156 110 100
-9.174631 5.252224 -0.002630 20 13 84
-8.465385 1.279937 0.097277 41 246 137
9.778640 7.041390 -0.037736 43 235 62
-3.308484 1.085881 0.176929 140 83 149
4.744835 2.474239 -0.161888 189 21 16
-6.041715 7.078293 -0.028208 86 131 247
-5.401611 1.210539 -0.045680 119 67 17
-7.198155 0.034663 0.084215 28 20 186
9.315221 -4.452097 0.012400 173 76 44
9.342793 -8.364454 -0.077578 192 21 177
5.064789 -1.825008 -0.096439 89 41 214
-0.246465 0.676899 0.093470 143 79 60
5.980029 0.008289 -0.134985 227 74 13
4.240320 -5.348377 0.017299 206 194 28
8.817398 -5.214760 0.109614 88 140 135
-1.897315 -5.342798 -0.053616 160 80 94
8.529761 6.792386 -0.027530 166 54 175
8.681272 -7.190142 0.188602 255 226 36
-5.740235 3.102095 0.068950 225 140 243
-1.759527 6.102706 -0.091480 191 89 54
9.410027 -0.375850 0.045399 68 243 104
6.691070 -4.509796 0.135383 171 140 189
-2.588507 -7.867854 0.151559 43 142 169
7.247589 -7.658922 0.012123 121 221 125
-3.145555 1.952111 -0.017949 250 186 51
9.949767 -1.635934 0.064406 172 68 146
7.026217 2.901638 0.051000 0 202 254
-7.645444 8.650608 -0.133829 76 0 37
-9.362407 -5.170463 0.053223 73 8 245
-4.198022 -7.453014 -0.079239 104 0 159
-4.702940 -0.836959 0.188496 45 165 76
2.361387 7.473031 -0.080811 190 34 70
8.202155 1.033756 -0.051698 147 55 234
3.055478 -6.443912 0.065953 232 1 220
9.917712 -1.932791 -0.020459 185 162 251
-3.860993 6.281796 0.167982 71 79 248
4.042386 -4.574230 0.024555 28 35 169
1.421848 -1.901140 -0.087124 252 238 22
0.898840 -1.504229 0.107187 189 96 208
-0.161756 3.030768 0.011553 41 178 238
-4.697558 4.845738 -0.054501 132 198 224
-0.686082 5.823216 -0.155267 15 172 53
-8.792777 0.810357 0.030835 90 17 239
6.744033 8.732147 -0.090771 62 156 83
-2.534182 2.629969 0.134490 139 150 164
3.030882 -9.283833 -0.043412 89 213 172
1.497535 0.878956 0.309831 164 113 135
8.632919 -4.675614 0.012913 67 252 203
0.348810 -5.523319 0.031922 197 96 101
-6.461320 9.474706 -0.105394 60 77 225
-3.222960 -9.899382 -0.151079 173 189 16
-7.243737 -4.082650 -0.001872 115 41 96
-6.128304 8.799310 0.065811 107 27 172
1.266862 -9.508467 0.096610 105 206 123
-5.425492 -9.384261 -0.062473 249 210 100
6.362673 6.843523 -0.009547 50 233 167
-1.875466 -7.182728 0.027559 117 246 106
-6.566682 9.112478 -0.174984 60 48 76
2.522432 -0.992025 -0.111339 67 16 97
-2.637126 -4.056810 0.118774 167 131 87
2.203094 -6.453779 0.167683 239 168 252
-3.799867 5.088067 -0.212716 217 28 228
2.685611 6.715905 0.021433 195 93 68
8.566274 -5.403806 -0.092093 140 29 29
8.917056 1.925523 0.116407 185 29 28
1.817039 -2.933575 -0.082358 120 42 249
-8.379403 -3.986639 0.049306 249 40 125
-8.873415 -1.900208 0.095118 132 101 204
-4.202144 2.675132 0.154882 178 250 11
1.327803 3.110424 -0.025069 53 31 115
-6.254176 8.422212 0.007936 20 200 101
-6.733396 -3.163484 -0.102875 96 226 96
-3.375569 -0.611684 -0.127173 142 229 165
-8.449013 -8.466700 -0.106807 134 113 38
-1.148717 -2.941819 0.001683 110 149 161
6.993721 5.127853 -0.112245 252 213 179
-1.338750 -2.013890 0.136449 0 172 123
-7.090089 -4.115103 0.012879 245 54 26
1.810231 5.308207 -0.113992 52 227 199
2.834636 -7.285128 -0.010679 32 147 65
-2.832280 -2.656276 0.058266 195 241 118
-7.116302 -1.438789 -0.095916 10 217 1
-7.696394 -2.250511 -0.125342 109 4 125
-2.724212 5.207376 0.007372 164 113 161
-8.329895 -9.285777 0.069183 70 241 173
-4.349128 -8.928701 0.094993 145 118 249
-9.862935 -3.671986 0.053991 197 218 19
9.242854 6.654938 -0.161154 200 210 211
7.424456 -6.459679 0.115843 104 243 97
2.237190 -9.341520 0.039632 253 209 196
3.978115 -9.811652 0.072426 58 154 50
-4.177377 -6.299831 0.071461 156 214 97
-2.619168 -1.847721 -0.034255 33 199 6
-3.738646 4.479380 -0.237642 220 123 188
0.125264 -6.111847 0.022548 223 45 113
3.842584 3.536888 0.163459 122 152 196
-8.143688 9.119368 0.028638 14 142 169
-4.299715 -6.735932 0.064046 108 79 120
-7.205839 -2.085229 0.094392 1 56 113
4.557585 1.954941 -0.188602 211 150 32
4.533189 -0.947199 -0.107981 105 225 95
6.826030 8.227304 0.003173 89 141 156
-7.731147 -4.883320 -0.015002 81 32 122
-5.602691 -2.813114 -0.005061 89 191 129
5.743708 -1.152154 0.077387 27 181 63
-7.494615 8.287425 -0.128853 59 159 165
-3.902200 3.361570 -0.034928 211 252 154
-1.026459 -8.515338 0.072912 222 218 86
5.946775 8.316586 0.035049 250 224 182
-0.104176 5.426531 -0.064948 84 190 25
6.387117 -9.645729 -0.028204 96 112 182
-7.277148 -2.082994 -0.027886 6 32 135
0.456164 5.972231 -0.135733 108 149 104
-8.677299 -2.527017 -0.056109 194 41 33
7.173072 -0.570316 -0.089380 237 40 119
-9.763234 6.992170 0.014023 212 49 158
0.016117 4.673543 0.119167 248 195 156
5.637753 -8.983052 0.047688 178 106 206
-5.906163 5.540948 -0.118788 163 163 210
-6.988709 2.178501 0.030705 60 61 68
-0.626295 -3.600004 0.010924 114 7 33
-4.480270 -9.142462 -0.030533 41 162 117
-7.812730 -7.455254 0.280148 54 125 71
-6.769108 -4.685613 0.195064 179 234 238
9.618196 -2.551226 -0.050155 137 220 67
3.900365 -2.887268 0.054427 24 221 203
6.548602 9.918402 0.018078 132 146 238
3.529556 1.962242 0.014169 192 137 208
1.484754 3.231664 -0.030515 236 225 148
8.761665 -1.341649 -0.013675 223 178 120
5.869395 -5.488044 -0.026641 112 227 35
-7.968432 -8.255840 -0.099103 204 45 137
8.545098 -2.821904 -0.028907 55 158 131
4.466582 4.406911 -0.019314 83 35 254
0.070290 -8.023964 -0.095203 200 76 103
0.222689 -2.338015 0.096867 62 0 132
4.392664 8.927664 -0.013176 52 233 154
5.359489 9.002232 -0.035679 23 47 16
7.571793 9.087870 -0.018821 166 41 15
-1.213999 2.175955 -0.046602 84 244 187
-8.687990 -4.016408 -0.103754 155 238 44
-5.357813 -2.817885 0.054095 233 49 101
5.250781 -2.283869 0.123248 27 32 93
1.117515 3.772497 -0.033702 234 1 144
8.708518 4.111522 -0.090181 36 182 226
3.623704 0.748657 0.099288 227 237 40
-3.118269 -1.488763 0.022339 208 250 12
-3.979184 6.781771 -0.084476 34 89 73
-1.345836 -2.392520 -0.070472 94 160 6
-6.879860 -8.197023 0.168131 40 224 95
3.064624 -2.226360 0.005150 55 216 115
-0.000364 0.518062 0.028824 172 35 47
-8.482854 8.593702 0.043481 157 42 31
0.968749 3.257348 -0.099667 240 146 50
-5.562199 -1.317179 -0.093476 206 218 254
-8.532528 7.703968 0.033217 30 233 157
-4.807492 -3.219506 0.178473 131 164 189
1.573108 -5.379508 -0.162520 14 52 251
-4.233484 4.713727 0.046891 194 209 234
-6.016574 1.918459 0.001566 230 39 20
-6.187663 -5.248162 0.023577 64 156 183
-9.896780 7.716645 0.140482 181 165 74
-0.110576 -5.996987 0.095688 73 30 162
5.002526 -6.910355 0.052138 126 162 79
-5.723122 8.114282 0.152807 0 48 146
-7.080636 5.284006 0.008539 85 223 200
-8.464488 1.697184 0.016580 119 54 251
-5.662090 -3.502264 -0.049165 224 11 70
-5.378163 5.769176 -0.062604 183 60 175
-8.102493 6.300867 0.057509 15 243 39
-2.445104 5.395873 -0.108381 83 60 55
4.243993 6.274546 -0.084139 2 175 100
-7.984590 -6.169317 -0.077241 173 119 154
4.000334 -9.542305 0.111945 31 144 221
2.011509 3.602005 -0.103434 120 112 14
4.320938 0.891163 0.037761 126 132 13
-7.414450 7.818412 -0.165478 27 132 100
-9.954149 -1.233669 0.033678 79 217 77
0.886379 -2.966184 -0.035889 172 41 9
-7.484467 -2.709949 -0.105268 94 161 4
-6.860882 9.276693 0.004852 23 233 107
-4.859634 8.645214 0.102872 58 207 195
0.015810 2.472271 -0.072856 198 25 53
-1.005313 2.436970 -0.022786 181 111 243
-7.403102 -0.684940 0.086825 47 242 210
-9.258653 7.536680 0.047137 49 165 51
9.660867 1.957297 0.036776 73 16 16
5.176734 3.366379 -0.056378 241 224 80
-3.139875 -3.393079 0.064577 182 197 223
0.683596 -6.126690 -0.050482 41 21 184
9.434583 -0.478555 0.059564 171 112 204
-3.952813 -7.407023 -0.097550 204 13 106
3.890556 0.315946 0.041204 16 72 117
8.744165 2.621365 -0.047954 165 182 148
-9.402404 0.062439 0.077708 194 186 150
-6.490877 6.553390 0.173578 151 179 13
-8.641320 -1.272636 -0.007243 32 143 178
-5.453842 7.526616 0.074741 43 6 224
5.549017 6.990669 -0.113429 254 239 228
1.772474 8.444276 -0.015519 141 25 84
-9.406629 9.864093 -0.068924 121 117 185
-8.182823 9.978730 0.049856 9 157 225
0.683167 4.398132 -0.000183 2 114 30
2.024515 0.023864 -0.133266 187 251 106
-1.535012 6.350998 0.146519 23 186 191
-5.245065 0.223048 -0.079246 1 246 66
7.523589 6.690377 -0.019201 83 68 40
-3.046019 -0.251042 0.284937 205 196 58
9.244529 3.427833 -0.063148 187 93 112
-1.982579 -8.893781 0.148326 62 103 55
-9.463452 6.999438 0.056440 5 253 52
-5.560453 0.298569 0.171588 187 6 38
5.686065 -3.526170 0.074733 148 106 127
-9.776716 9.084534 0.012527 221 47 192
6.422076 -7.588179 0.101889 40 76 233
9.634638 -0.406463 -0.150374 104 32 192
-9.862129 -6.650411 0.044820 93 132 55
6.807086 2.908305 -0.113494 86 158 62
-3.497538 -8.033306 0.074876 62 14 122
5.589704 2.234867 0.143733 252 233 9
4.734912 -2.233676 -0.023362 201 213 156
7.274143 8.352193 0.059739 149 14 188
8.245749 -1.989440 -0.112270 219 220 249
-1.420020 -0.300769 -0.020158 41 164 68
-9.609565 4.434968 0.073264 17 159 224
-7.225208 9.844479 -0.190902 12 221 193
8.588674 -1.499688 0.022411 192 68 58
5.437563 8.026851 0.073213 238 89 209
-0.472066 6.309776 0.123808 23 119 88
1.018986 6.236601 -0.098808 124 194 142
0.867971 -1.587762 -0.103292 34 66 187
-3.462979 6.957251 -0.078382 247 91 170
-1.710054 6.439992 0.093047 129 82 188
-5.756175 -3.083543 0.080908 45 77 121
9.705504 0.805268 0.045150 123 61 213
2.655713 -2.389084 0.024042 118 9 16
9.498485 -7.575639 -0.115428 83 207 165
-5.048429 5.523230 0.101012 249 236 246
0.329420 -0.651315 0.044534 4 174 238
-4.832943 -2.080173 -0.203670 67 91 245
-8.577293 -7.155757 -0.084197 153 250 179
-9.168450 6.584297 -0.022559 147 254 116
2.234205 4.476701 -0.209711 215 237 194
3.152735 -9.270254 -0.134244 234 185 4
9.413348 1.427553 0.076489 225 77 100
3.185370 -4.572292 0.029142 246 156 164
-2.455881 6.787296 -0.026041 3 63 36
-4.862904 -5.574049 0.033133 117 164 19
9.141868 3.426599 -0.060357 203 189 203
-8.636136 0.774122 0.096684 173 106 216
-0.472494 -0.839901 -0.095036 92 102 109
-0.036246 4.328088 -0.219986 34 180 201
9.209596 -3.469816 -0.076659 43 98 250
-5.892820 -5.709152 -0.067218 41 244 176
-9.126173 -4.081201 0.041915 36 93 91
-9.955515 -9.228530 0.186924 232 218 156
4.370796 3.227511 0.104261 73 51 47
2.922646 3.018577 0.204703 58 192 56
7.923493 -3.968778 -0.074750 107 135 5
-7.617443 2.394641 -0.057654 182 71 214
4.441921 2.097888 0.030375 48 152 214
-2.390206 -4.718050 0.023591 194 37 61
-4.799980 1.648055 -0.038093 154 96 82
-8.922609 0.136203 -0.097732 120 211 229
0.435669 5.352128 -0.233679 176 160 1
1.270720 8.093890 0.034910 10 28 69
-0.613464 5.446910 -0.015141 128 33 2
-3.172933 1.862014 0.115427 107 204 187
3.520044 5.137237 -0.171560 240 162 34
-2.616970 -3.872499 -0.111932 251 65 243
-6.642369 6.846521 -0.052432 121 9 226
5.900905 -9.331290 -0.002596 193 197 120
7.819313 6.599411 0.029361 131 117 163
4.236600 8.740217 -0.035952 10 58 160
5.354058 5.040576 -0.010222 54 202 74
-1.068623 -7.528466 0.232698 126 163 198
0.772541 5.162365 -0.013563 190 98 122
1.150547 2.552744 0.018162 57 199 50
-5.843364 8.557559 -0.015443 209 147 106
-9.809071 -3.330388 -0.031227 241 218 126
8.348704 5.856810 -0.067796 103 52 72
-4.315337 -1.323124 0.053026 99 65 80
-5.690634 6.020686 -0.174237 53 232 232
-0.588118 2.201860 -0.079326 67 66 169
-6.604828 -3.877122 -0.035354 220 126 200
5.979193 -0.306054 -0.158216 151 219 189
7.232185 -5.759169 -0.042687 117 175 197
2.650103 7.933444 -0.055040 17 190 85
-2.081001 -3.314606 0.040053 34 167 142
-1.199428 0.850535 0.059801 246 254 53
4.551526 1.745618 -0.041857 61 112 111
-2.593931 -6.663233 -0.003101 182 151 129
-5.281472 5.684034 -0.114560 109 130 205
3.042980 -5.683394 0.158315 58 0 131
-5.377010 -0.815891 0.005020 67 33 149
5.583758 -9.925236 -0.112726 203 181 254
9.833239 -2.520955 0.015566 219 11 118
5.865048 -1.507204 0.009988 147 38 167
0.679101 3.801139 -0.167266 234 86 120
1.530272 -4.275688 -0.075822 232 17 226
2.661061 8.721274 -0.034482 239 210 240
3.570508 -6.683646 -0.111890 225 61 161
4.973368 8.155667 0.101841 187 196 62
8.603161 4.692684 -0.011086 182 42 87
2.350184 6.367193 -0.024714 63 138 31
-3.657146 -4.521915 0.109126 96 244 72
7.571796 -5.149632 0.126904 183 163 223
-4.532346 -6.728767 -0.017987 203 249 5
5.533058 9.257654 0.217553 123 225 47
4.563492 6.482961 -0.136449 117 121 224
-1.017900 3.809693 -0.057860 236 219 211
2.787923 7.090322 0.033394 167 155 226
-5.633961 -4.778201 -0.005933 114 81 19
-9.676222 1.687322 0.225572 47 253 51
9.045407 1.225341 0.007933 4 12 204
-5.609294 7.096772 -0.097733 45 148 41
-2.118820 5.061354 0.017593 246 34 134
-3.782119 -4.147448 0.096180 113 152 12
-9.455503 9.603238 -0.212688 175 88 235
2.485468 -1.590284 0.049501 230 14 255
-5.055626 -0.404936 -0.083506 172 236 87
-2.732756 -9.511205 -0.125600 134 54 239
-4.092044 8.581505 -0.067827 186 214 66
-0.090701 5.051798 -0.018821 89 150 208
3.008276 1.130897 0.038146 21 17 42
-5.619672 8.206843 -0.127593 123 195 159
5.277650 7.302922 0.085028 41 223 113
2.782688 3.408070 -0.093768 96 217 154
6.434666 4.336130 -0.009538 98 40 196
-0.021621 -7.934187 -0.073587 95 179 208
7.371290 -2.843805 0.040699 71 142 178
2.666310 8.691903 0.043392 21 60 211
8.402018 6.804222 0.185656 202 103 181
8.615579 9.558971 0.207566 120 32 197
-4.704530 -1.756901 -0.126927 61 177 165
-9.308034 5.168729 -0.022884 152 198 167
-5.020998 9.963530 -0.154318 152 15 37
1.034972 -5.153918 0.118111 218 145 32
-6.880130 -5.637572 -0.072489 161 60 243
-3.686883 1.804048 0.013492 253 114 80
-9.407731 6.456147 -0.205701 142 214 106
6.936443 -2.907123 0.064595 53 199 69
8.233949 5.236828 0.006250 221 31 46
-6.455512 -9.818350 0.024919 161 213 246
6.791009 -7.054399 -0.119907 121 205 208
0.092169 1.245880 -0.164998 115 155 240
6.921880 7.599013 0.120221 23 116 110
-1.055639 -7.647638 0.151636 12 251 33
-3.446102 1.184093 -0.044660 6 182 167
0.999507 -0.626266 -0.054459 163 23 178
-4.233791 -5.837892 0.012722 164 64 166
-1.024510 -7.447968 -0.169621 157 7 15
-6.779120 -7.391215 -0.169282 250 181 238
-8.795931 2.631860 0.048184 177 204 235
6.087892 -6.612744 -0.209370 222 95 115
-9.909218 -6.733406 0.033297 213 207 163
6.904650 -3.966564 0.074839 184 179 169
6.692200 4.096578 -0.092755 142 253 125
4.177257 -8.375055 0.018858 223 253 9
-3.553981 9.334264 -0.028260 155 130 110
-0.180384 -5.204604 0.025947 44 55 196
3.029699 -3.066200 -0.128671 222 138 100
-8.403320 -7.565394 -0.015060 36 197 176
-8.364989 8.989352 0.187104 59 25 85
-9.829562 5.502595 0.084795 158 234 10
-0.842979 8.429786 -0.068729 150 100 14
-4.238451 -6.223886 0.093977 173 194 14
7.771008 -7.822628 0.003034 101 90 183
6.801556 -0.769895 0.064057 238 45 241
-8.476617 -8.347732 -0.120352 177 177 225
-1.226294 -5.251273 -0.052281 238 68 139
-8.398892 -7.854819 0.000317 56 188 98
-5.524550 -4.694510 0.003922 151 250 48
4.460606 8.325517 -0.148867 40 120 78
-9.358497 -3.893278 -0.075242 253 100 17
-8.693230 -9.486818 -0.005456 172 134 172
-9.589252 2.177203 -0.167386 190 242 66
6.956626 7.752077 -0.093593 33 223 150
-3.900098 7.415219 0.038416 229 202 141
5.467750 -2.263163 0.117778 102 64 59
3.293631 2.170639 -0.058385 102 62 187
-2.396114 1.611132 0.208071 221 207 193
7.958910 5.983558 -0.056354 108 20 234
2.351651 3.970051 0.025433 255 188 18
1.263373 -7.930942 0.002631 189 130 71
7.419115 6.468161 -0.052728 67 36 253
1.850041 -7.307363 0.042738 189 21 191
1.804800 0.765114 0.162447 250 6 110
9.071563 -2.876893 0.154135 97 251 173
-3.492015 5.442915 0.088910 232 201 101
9.288045 8.032088 -0.120470 154 186 223
-8.008693 -5.016225 -0.112435 108 5 30
-4.123045 1.921715 0.064269 5 222 233
5.311669 -0.063684 -0.239722 87 116 89
5.846904 -9.578778 0.112948 198 20 163
2.795456 3.492928 -0.026904 98 97 59
7.935663 7.822650 0.054938 42 156 134
-9.103512 0.135755 0.152599 244 90 30
-9.612410 -1.873532 0.201277 205 202 65
7.161203 2.394855 -0.053213 42 95 15
1.541450 -2.841825 -0.150104 253 7 58
-1.830384 0.915147 -0.072812 163 44 248
-5.699075 8.160629 -0.109022 173 120 83
-5.533539 7.324393 -0.045592 92 37 231
4.377008 0.457021 -0.196433 237 165 5
-8.074675 -2.544675 -0.027118 60 248 194
9.451565 0.314125 0.037564 41 92 153
-2.950284 -7.989445 0.019320 182 11 126
-5.082741 -1.918141 -0.075146 109 74 14
-0.538001 5.465667 0.030420 204 253 27
-6.990165 5.922314 -0.165044 41 215 10
-4.267650 -6.066482 -0.151644 152 214 221
-4.585833 -8.921862 0.050046 107 222 253
-0.905016 -6.625104 -0.091934 191 163 138
-4.839816 2.538780 0.120312 57 243 33
5.782692 -6.081872 0.171572 209 141 184
-3.356496 0.349366 -0.049642 244 53 153
9.411479 2.435520 -0.101106 232 140 4
-7.295143 -3.493228 -0.235607 178 202 193
-8.962098 -5.334611 -0.018632 177 161 114
1.720685 6.153680 -0.003444 11 161 155
3.569016 -0.050606 0.023167 91 145 68
-4.539452 9.330060 -0.173503 79 87 131
-5.123951 6.455608 -0.065279 208 105 16
6.445331 -9.126813 -0.056918 29 112 222
-0.833853 -3.441396 -0.147889 161 41 2
-8.886897 1.854800 -0.014807 10 239 88
9.696913 -1.272650 -0.037673 77 199 16
8.108586 7.238778 0.076069 117 164 68
-2.609107 2.539791 0.070234 6 40 162
4.336226 -9.874825 -0.085309 51 252 10
-3.171866 -4.795572 -0.019511 66 59 154
9.441525 3.290608 0.002449 167 223 47
9.454224 6.079297 -0.033873 54 239 227
2.615472 -0.800221 -0.056737 64 127 37
-0.529618 -3.934467 0.142865 145 243 161
2.353218 -4.951777 -0.205153 58 152 118
-5.033883 -1.467558 -0.095311 212 102 1
9.093319 8.733401 0.044728 156 99 76
9.797541 8.033467 0.059547 84 125 165
2.149420 2.554383 -0.142548 128 195 195
8.306147 -4.932553 -0.171192 196 9 219
-9.816877 -8.925079 0.015213 196 37 5
-3.972050 6.493400 0.049400 203 239 99
7.709038 -8.771719 -0.022830 78 3 146
1.647415 -5.439506 0.092042 252 203 230
-1.759882 9.892024 0.097547 141 21 27
-3.694216 -2.949108 0.046645 150 80 186
9.498075 2.080988 -0.014857 93 224 192
6.683447 -0.372941 -0.106003 66 157 236
3.763162 -5.131713 0.127091 250 248 122
-9.318873 -3.683339 -0.151482 194 67 143
-4.548563 6.725659 0.035674 182 3 22
6.716204 5.745742 -0.084788 151 250 176
3.389645 -2.052551 0.002314 18 88 33
1.273500 9.262571 0.131036 57 137 43
-5.419446 8.430256 -0.028723 153 224 107
-6.975791 4.135505 0.050941 239 231 197
-8.283416 -5.782199 0.137060 41 108 106
-8.718306 9.488421 -0.010918 104 137 4
-7.845813 -8.342202 0.031086 72 28 119
-4.038513 5.263352 0.125534 153 156 11
3.184799 -1.930385 -0.149827 18 143 131
-5.062512 2.261314 -0.155082 54 215 89
-1.326994 -0.187013 -0.145951 152 90 243
-0.959089 5.151628 -0.091478 219 102 178
-7.198938 7.943266 -0.079144 50 5 16
-4.544652 9.642749 -0.223815 166 68 13
-6.846039 -8.409263 0.203989 68 79 225
0.015172 2.985162 0.056771 3 45 142
1.454899 5.995513 -0.030684 135 53 68
7.598485 -5.559452 -0.016691 160 132 173
-0.328994 4.597215 -0.022544 114 236 188
-6.227119 -7.780230 -0.041148 130 160 42
0.109129 7.143458 0.014654 170 221 196
0.345823 -3.178285 -0.035935 41 171 241
5.104482 -0.726163 -0.027593 153 51 100
8.704894 8.842742 0.161577 115 130 65
-5.888568 -4.145744 -0.153569 34 146 153
-7.258111 1.571550 -0.192288 173 3 114
2.897309 5.529301 0.117310 71 78 116
8.573567 6.238662 0.246879 181 39 132
3.051200 -5.361702 0.080747 235 59 195
2.760307 3.510137 -0.117659 146 252 200
-4.703791 -6.875295 -0.064017 57 184 91
-8.658300 -1.577671 0.003567 41 168 194
-8.060929 9.499327 0.121278 180 247 109
-0.310141 -3.597713 0.023527 188 227 68
6.120382 8.482763 -0.109085 1 250 172
-2.293753 -5.312955 -0.053112 217 149 219
9.396299 -4.099932 -0.178186 101 218 251
-2.786222 -7.122362 0.035406 138 164 40
7.941730 3.836863 0.136109 95 232 151
-2.480590 -9.154258 -0.066918 79 251 33
1.305271 -6.916929 -0.038384 218 51 146
-7.045365 -9.587607 0.077150 118 242 188
-9.483296 5.871329 -0.079761 10 208 105
6.762408 -7.314606 -0.018503 98 51 116
0.923908 -2.865196 -0.036706 9 18 235
-6.948308 -0.628877 -0.100221 86 144 143
7.208615 0.595576 0.071115 158 200 80
-2.169408 1.502562 -0.124570 200 84 179
9.427777 -1.570510 0.022908 53 252 133
-5.390024 1.409659 0.073373 114 153 245
6.959948 -3.329300 0.089901 110 134 90
-9.436372 -5.442004 0.098667 107 192 87
6.808323 6.400344 -0.064716 5 8 135
2.454812 7.883532 -0.096195 207 98 227
4.756071 -5.333098 0.028696 234 43 158
-2.300966 5.382588 -0.038992 166 181 112
3.950570 -6.359933 0.073112 80 67 106
4.604534 -3.119084 -0.162756 116 119 136
-0.720636 -5.077676 -0.006325 193 143 34
5.335988 7.460502 -0.067252 58 195 58
2.081541 -9.170094 -0.018805 2 60 244
-8.474953 6.686091 0.198775 228 101 229
-8.356504 -9.588085 -0.110756 90 68 123
-4.433637 4.605408 -0.049850 169 65 174
-2.827577 7.490571 0.099398 217 6 85
1.013466 -4.885975 0.006772 232 53 66
-5.793153 8.920916 0.063481 249 192 45
-5.293692 -8.772335 0.071074 152 69 107
1.774129 2.436381 -0.116193 131 183 232
-6.238951 7.347091 -0.104729 14 0 212
5.305268 -0.131233 0.119808 140 184 145
2.345569 6.487747 0.002529 152 68 193
4.347838 -0.778424 0.147353 55 49 238
-2.380768 -3.870799 0.045378 233 51 117
-6.771397 6.556187 -0.076450 150 45 198
-3.102920 9.503173 -0.155406 222 125 76
5.254905 -6.805501 0.082519 194 122 88
4.846330 4.092115 0.032506 48 252 242
6.188601 -0.621673 0.004783 253 118 83
0.265071 -5.833679 0.054935 179 169 242
-4.450951 9.389474 0.050424 212 80 253
6.200405 -8.125196 0.116869 152 219 185
-2.001093 1.346682 0.116330 160 148 41
-3.381815 9.905127 -0.215344 187 78 226
4.473342 -8.760437 -0.023196 208 126 184
-5.650170 9.531608 -0.032693 245 192 98
5.653740 7.034755 -0.071133 25 131 119
0.809014 9.805690 0.015346 112 50 130
8.652787 -5.802119 0.040056 50 52 186
-9.949790 -4.582755 -0.095355 5 199 207
-3.187502 -8.102771 0.074270 130 23 148
5.490475 -1.329061 -0.030147 40 29 27
-3.341433 -7.603647 0.028489 232 80 81
0.098891 6.580460 -0.131710 172 126 158
9.672592 5.506527 -0.014865 88 114 43
-3.498547 8.538911 0.147269 249 213 203
-4.446425 -5.792462 0.056959 2 197 29
-6.063135 -2.221636 -0.127939 119 85 49
0.574892 -7.912861 -0.236366 255 228 133
-4.226089 -8.129549 -0.071256 43 210 13
-3.677564 -8.115973 0.085894 214 125 61
-9.108964 -0.620824 -0.112470 7 230 41
9.447580 -5.520302 -0.080999 206 191 248
7.818361 -6.302125 -0.091102 158 125 50
-7.414480 3.627231 -0.046347 215 179 117
-0.480117 -6.297975 0.129617 252 240 244
4.439301 -4.921255 -0.001837 114 242 78
-5.630853 5.780911 0.029945 17 12 94
7.254366 0.807124 -0.043566 70 236 68
-4.970563 -2.446265 -0.253446 184 92 2
-1.728506 5.755322 0.018991 130 106 136
7.511710 2.775688 -0.122641 110 216 59
2.764200 -8.217044 -0.049269 23 160 19
-3.924327 9.103530 0.002710 233 215 166
0.949742 -9.238893 -0.173596 211 203 55
1.911967 -0.208407 0.029141 51 43 99
-9.957006 5.353369 0.082767 26 39 7
-4.236293 -0.573192 -0.168989 169 234 106
7.143602 7.262644 -0.073623 203 89 147
1.685150 0.663107 -0.059601 43 118 78
1.497888 0.293612 0.127160 59 92 114
0.147204 -7.258235 0.051903 156 57 136
6.076397 -1.529861 -0.067772 204 68 106
7.204741 7.104399 0.045125 40 204 11
-7.437744 7.000525 0.086209 37 198 213
8.757572 4.731344 -0.161095 61 237 187
-8.229861 9.439526 -0.059157 224 216 9
4.985958 0.485217 -0.069344 56 213 254
-6.933747 9.458085 -0.076370 162 203 53
-0.097522 0.985212 -0.136731 164 43 166
-3.087612 -1.201696 0.079280 250 242 67
-1.937115 -9.745561 -0.049118 247 30 185
-3.394848 7.879100 -0.016655 34 65 103
7.371943 -1.114654 0.173895 34 92 192
-7.458068 -8.048124 -0.032202 248 163 38
7.796663 5.076562 -0.017518 23 191 30
4.784523 -0.581666 -0.128385 190 32 85
7.653805 -8.832407 0.057688 6 240 113
-0.708467 -2.124152 0.015681 7 167 194
3.999820 9.169026 -0.110207 127 20 180
7.847672 8.524329 -0.119499 118 63 50
-5.234293 2.960236 0.203423 161 14 192
1.660445 -9.472207 0.016370 149 249 246
9.513001 1.698524 -0.048816 135 150 119
-2.057952 9.781259 -0.168752 216 154 67
-6.153246 -1.421558 0.008493 103 55 247
-0.519310 0.212046 0.044907 85 236 23
-7.341191 -9.866759 -0.074318 250 89 187
-6.684258 1.769869 0.027437 71 38 133
9.399268 3.651100 -0.052731 164 130 204
0.933278 8.805608 -0.136592 54 82 230
-4.989228 5.546658 0.092324 250 231 106
-6.744145 -7.634761 -0.054310 153 231 37
3.508888 -0.970342 0.280297 209 221 157
2.591981 9.737135 -0.134177 88 174 103
-8.944557 8.960426 -0.222881 68 130 191
-4.329597 -2.383603 -0.020253 124 104 139
5.586001 -2.261607 -0.007579 62 94 211
-6.261533 -4.168183 0.138003 69 58 183
-5.212827 1.302698 0.024916 218 23 92
-7.033208 -4.438265 -0.051834 65 117 253
1.662111 0.963168 0.117452 179 201 208
6.718776 7.146175 -0.067230 140 36 67
-7.216506 3.472915 -0.091102 55 171 141
-4.737991 9.704687 0.126255 223 70 239
6.866500 3.850192 -0.231883 168 65 52
-2.525463 2.290915 -0.165368 75 187 5
2.769290 -5.576537 0.027357 253 41 109
-6.386450 0.703137 -0.039392 2 71 184
-8.334641 8.250844 0.024848 98 214 81
4.858653 4.912569 0.084734 158 5 240
-5.130417 3.797968 0.017604 153 58 209
2.172445 -4.562753 0.025508 76 224 53
-8.432767 0.424177 0.012823 21 44 9
-6.386312 2.727990 0.008952 26 107 111
-1.908174 -6.478095 -0.093829 69 90 156
-0.420180 0.053907 0.034980 74 201 82
-9.940952 9.652417 -0.017055 187 243 84
2.698748 -1.896971 -0.022545 222 173 255
-0.489871 -2.957059 -0.045782 211 102 173
8.795845 1.758152 0.126130 199 181 172
-4.281004 -3.615593 0.051895 68 229 240
-0.231503 -6.132183 0.126312 108 130 22
7.507527 3.761655 0.093295 250 39 63
3.111348 0.975663 -0.094961 229 129 177
-3.804961 4.914214 -0.128083 106 254 130
1.776651 -6.552401 -0.098936 188 87 169
2.733266 -6.739631 0.019282 18 217 149
-1.377001 -4.330329 -0.040377 21 204 132
2.997508 -3.696626 0.066409 43 204 77
1.436620 -8.224303 0.175068 114 114 94
1.783699 -7.222036 -0.048073 14 201 9
-3.409718 3.190753 0.066759 51 69 201
-2.891352 -0.368294 -0.024101 56 181 251
-4.468292 0.610684 0.052038 154 32 28
0.569920 6.745648 -0.141409 245 179 156
1.637875 -0.593077 -0.084196 203 64 37
5.451232 -7.602350 -0.073318 252 46 171
9.353102 1.189316 -0.082515 170 112 115
-6.466311 1.485309 0.049857 181 254 62
5.431504 8.680054 0.011943 1 22 238
-0.761743 0.270632 -0.045622 248 75 100
0.694974 -3.963115 -0.050169 57 38 122
-3.174428 -1.771437 -0.023808 133 170 155
-3.502231 4.622416 -0.058376 235 155 29
-9.642305 2.921673 -0.032274 45 7 192
9.652956 -5.900779 0.226342 113 185 64
3.857247 -7.917518 -0.004545 244 142 92
-3.431712 4.585647 0.047382 164 175 168
-8.325738 7.370160 -0.100786 244 54 129
-0.620954 9.121483 0.063348 149 250 252
-1.514000 -3.072521 -0.020157 64 11 117
8.046781 9.036235 -0.011286 7 38 40
1.028401 -6.318830 -0.072034 170 48 36
0.804407 8.442330 0.001262 84 117 234
9.353378 -6.145833 -0.146343 57 47 109
7.737145 5.843263 0.057802 1 157 168
2.807249 1.242495 -0.051471 105 88 99
-0.855074 -9.896502 -0.106560 140 143 232
6.882117 8.726964 0.147070 157 144 58
2.272129 -6.678932 0.016158 171 213 199
-6.315202 -5.245374 -0.113652 72 67 76
-0.521099 -7.263614 0.137210 13 226 57
0.242084 -2.056630 -0.082636 152 238 252
1.971009 -5.890347 -0.068266 161 95 226
1.688125 4.064438 0.064126 211 170 25
5.547315 -9.645098 0.036858 206 93 21
-8.669975 6.022590 -0.066865 114 77 182
-4.664916 -8.453594 0.168604 37 76 8
-5.717773 4.439856 0.030218 0 3 202
0.665555 1.237584 -0.001919 1 26 208
5.402619 -9.798412 -0.211085 235 86 81
-7.285569 5.280307 0.029778 203 39 232
0.221404 -8.597676 -0.083938 18 238 123
-3.236002 7.593989 -0.024987 31 248 200
0.966866 -3.327521 0.052574 221 204 158
7.264012 -1.648967 0.034450 93 66 156
1.403048 7.788442 0.108694 76 96 57
7.277536 1.602562 0.017015 223 38 3
9.442959 -3.796240 -0.070311 249 43 138
1.210384 -4.826032 -0.085311 161 73 56
1.641671 8.562270 0.047303 123 21 115
-8.535430 -8.187746 0.003278 41 137 26
-1.408386 -6.002919 0.063755 149 157 55
8.802016 -2.638181 0.035199 114 206 64
1.555136 0.377823 -0.003580 66 99 67
0.223800 8.447547 0.007314 4 127 255
-1.507078 -0.290084 -0.043253 190 173 7
-6.608917 -5.981632 0.064175 59 147 50
-6.392289 -9.050315 0.090695 157 168 189
-0.166148 -1.104185 0.038646 168 5 216
-2.973308 0.021034 0.160839 14 129 48
-1.323293 -6.714657 0.272247 173 168 183
-4.760458 5.935110 -0.144006 195 31 54
1.083500 0.215551 -0.103772 249 90 107
-1.535406 1.034888 -0.027851 132 66 129
5.179083 8.673999 0.037921 71 87 191
-4.556332 -9.509668 0.070109 225 230 164
-5.837936 -2.850498 0.105636 225 143 156
-9.364782 4.986318 0.221044 46 163 164
-8.123371 -3.600246 0.023753 104 168 115
-8.133757 -7.178882 -0.232688 101 73 200
-9.852052 -8.085911 0.071528 244 194 171
-5.271489 -7.844262 0.117909 52 22 241
9.387857 -8.098360 0.151594 231 66 169
9.823154 0.796718 0.113482 7 54 138
4.245847 0.407110 0.102830 28 157 63
7.902491 8.877631 -0.038945 178 14 87
8.611072 -2.245797 0.068580 50 50 190
2.107264 9.597233 0.160605 114 62 130
-5.924116 2.696480 -0.060072 234 144 35
8.986438 -2.419343 0.057344 24 37 27
-4.264118 5.726713 0.020408 225 175 10
-2.397085 1.566437 0.051026 139 71 41
-6.350956 -7.592629 0.178174 114 153 5
-6.907707 -8.821694 -0.165294 91 68 202
