ply
format ascii 1.0
element vertex 1679
property float x
property float y
property float z
end_header
6.217921 -1.371440 -7.718600
-2.272332 -2.197124 9.589215
1.296508 2.148908 9.557175
-7.539316 -5.155470 -4.321731
1.581140 6.515064 7.557738
-1.417682 1.177927 9.808931
-0.164927 0.052127 -9.985132
-4.166385 -1.481634 -8.957488
0.224306 0.362036 -9.959551
3.896187 3.469538 8.328172
6.508288 3.804229 6.262425
5.038031 6.275878 5.992914
6.220275 -6.664027 -3.380076
0.938403 -0.179266 9.906568
-4.731188 -2.228019 -8.557279
-3.456029 9.423941 -0.530729
0.233239 -0.212417 -10.019243
5.776054 3.650889 7.177781
1.158399 -1.121846 9.940093
-8.917004 4.162330 -1.176253
-7.128104 -6.525690 -2.444968
0.776586 8.496143 -5.281039
-0.618126 -4.402176 8.788197
1.277180 9.548011 1.937315
7.491697 -5.142502 -3.800221
0.497615 4.987420 8.754375
-2.695640 2.736141 -9.138821
1.617018 -7.464760 -6.587680
0.343227 1.662599 10.058950
1.588315 0.271045 9.988446
-0.724565 3.569355 9.337755
3.088014 -5.637678 7.686184
5.573615 6.182732 5.620493
7.954633 -5.869672 1.294267
-1.957552 -3.469777 9.100027
-0.637198 -4.718667 -9.060120
-7.641407 2.740173 -5.547160
3.447103 8.146797 -4.752814
5.626276 3.140272 -7.514224
0.175445 1.575001 -9.794124
-4.034436 -1.914403 8.833542
-8.721910 -3.517567 3.520664
1.582448 0.304242 10.043954
-9.047072 4.158527 1.601906
9.251894 -2.966096 3.190341
-9.282466 1.008741 -3.922913
2.484846 -0.989688 9.644254
0.318021 1.011090 -10.012156
-5.506946 8.182576 1.397054
-7.822160 -1.757978 6.083080
-4.418056 -2.386278 -8.476299
0.288586 1.473362 9.995127
-0.862885 -9.861765 1.629929
-6.456513 -1.024811 -7.608549
-3.267596 0.982936 -9.355452
0.227804 -0.637688 -9.990794
-6.902302 1.868992 6.990350
0.611773 -6.460441 -7.630702
-0.200130 1.153558 -9.970704
0.117846 4.968673 -8.573038
-0.005881 -0.145936 -10.100741
8.621468 1.503431 4.299648
7.705853 -2.061608 -6.416899
-7.589640 1.618891 -6.528127
-5.438226 -0.129312 8.345536
-2.179731 -5.310262 8.019340
7.854439 -5.509935 2.543219
5.501377 5.145660 -6.442127
-4.790230 -8.586528 -0.521397
-2.393642 0.914283 -9.631405
1.458453 6.460352 -7.531025
-8.643390 0.678399 4.845834
-7.814384 -2.377871 -5.807627
1.400785 -0.759332 9.815701
1.519076 -0.222260 -9.675560
1.734792 -4.409074 -8.522879
6.188687 7.810457 0.379512
-5.294229 0.425555 -8.295087
6.291914 5.784003 -5.278200
-3.774054 -0.413366 -9.172304
-4.344058 -6.879584 6.063287
-2.122370 -9.215954 3.500414
2.431475 7.254169 6.332765
8.374223 1.185431 -5.237768
1.706443 -7.914092 -5.822193
2.613262 -9.566418 2.278540
4.744481 4.512829 7.721559
4.219814 4.531623 7.697299
2.982979 -8.468122 4.115696
1.140176 -0.514813 9.899397
-7.935013 5.650663 2.700713
-1.558379 -0.783795 -9.857764
-5.127952 5.339115 6.899014
3.765391 1.878299 9.121323
-4.865233 1.077414 8.786761
6.188301 -4.378836 -6.717186
-0.957203 3.984662 9.101447
-8.078164 1.311892 6.033859
-5.565759 -0.532944 -8.103042
2.504080 9.759910 -0.911130
-1.305645 -0.094426 10.025644
-3.209084 3.288730 -8.864627
3.815862 -9.370380 0.589539
-3.270127 8.064878 -4.884432
-1.737405 5.038142 8.632546
7.550966 6.168771 2.370354
4.378108 -5.640578 6.968063
4.895254 8.622726 2.083449
4.315491 8.626609 1.954011
1.679000 -1.905178 9.631555
0.233748 -8.638508 -4.986925
4.325986 7.485594 -5.298268
5.022514 -5.180005 -6.972547
9.027699 -1.209331 4.500285
9.861421 1.256006 0.112361
-4.883558 -1.486080 -8.354936
2.687365 -5.859555 7.737472
4.732878 6.519219 5.735683
-1.182013 -2.538110 9.642738
-7.784736 -6.440605 0.529761
10.021840 0.198377 -0.622120
2.957448 2.496264 -9.362213
-9.779651 -1.155182 0.326984
9.821277 1.391091 1.923074
5.051365 -3.140701 -8.185647
-0.974053 -9.820434 1.451059
0.235172 0.353433 10.087496
6.590819 -6.061874 4.093129
-0.010807 -7.051035 -6.987732
-7.260698 -3.221511 -5.891131
4.693908 -7.661420 -4.132862
-0.221388 0.153854 10.006706
6.820511 0.665043 -7.278757
-6.632639 -5.439623 -5.212936
2.899175 -5.033160 7.946444
4.728365 7.610603 4.635457
-1.701021 -9.496898 2.133622
2.521141 -1.658995 9.541515
-1.807511 -1.249333 -9.689126
0.066969 -1.015542 9.744726
7.336497 -1.470088 6.872646
-7.026864 -2.260321 6.836384
2.939357 6.481231 -6.903614
-6.218849 -7.561107 -1.912986
-5.300336 2.625116 -7.827178
-5.266039 4.328758 -7.293443
8.312215 -4.441080 3.208814
1.815421 1.979288 9.487446
3.839210 -0.197997 9.156039
4.111283 0.385120 9.308297
-2.165749 9.707433 -0.825999
-0.227899 2.651632 -9.552084
8.771038 4.395129 0.910892
-0.432301 -4.870427 -8.810051
6.299550 -1.817942 7.392166
1.604130 -1.638006 9.770747
-5.006871 -0.410347 8.780630
-0.741123 7.418387 -6.625142
-2.410390 -5.876289 -7.832525
-1.506076 3.592398 9.097394
2.753485 2.551439 -9.377394
0.737531 -2.359869 9.639235
7.602013 4.840119 -4.455051
0.198232 2.822668 9.650722
7.971252 -5.187964 3.581707
-4.299047 2.809985 -8.568492
-2.568925 -7.093005 -6.595632
7.400965 1.618509 6.384127
6.059790 7.564971 1.634395
-4.990400 5.635909 6.580982
-5.042139 1.939313 8.207880
-0.688611 5.679865 -8.149342
6.966290 5.627995 4.271987
2.087582 -0.704502 -9.510697
-8.216241 -1.636757 -5.184704
9.155611 3.437505 -0.725096
-3.308450 5.587746 7.546566
-1.992847 8.828577 -4.418161
0.110488 0.423921 -9.964554
-8.726330 -0.235267 -4.990728
-6.692740 -3.534604 -6.534645
4.246697 1.146927 -9.023206
-9.339490 -1.206003 -3.457301
-0.946847 8.026507 5.853598
7.459553 -6.610360 0.546805
2.411363 -1.268590 9.504948
2.865516 -6.798846 6.858687
-6.097032 -7.681291 -2.167830
4.959351 5.965427 6.318257
-8.690666 4.167424 2.131606
5.995980 -7.953172 -1.616676
-3.303063 0.710477 -9.343594
2.095685 9.115396 -3.046105
-8.982931 4.481600 -0.499636
5.762702 2.865475 7.444271
-1.574832 -2.325496 -9.627073
-9.366170 -2.161681 -2.502428
-2.367818 -1.560044 9.596119
1.710239 0.891481 -9.982026
-1.056271 0.999322 -9.927047
2.482879 2.852253 9.237598
-2.090525 8.860170 4.192415
-6.646704 5.788054 -5.022946
9.180976 -0.343618 4.439804
-3.930813 4.951884 -8.055306
-3.981804 -3.940536 8.309113
-4.978448 7.913708 -3.234809
-4.673516 2.034157 -8.610070
4.786404 1.317280 8.821257
9.854493 -0.009260 0.659137
-1.207665 5.478081 -8.153460
-7.985981 6.202437 -0.611383
9.210474 2.602797 2.499247
3.886496 7.342314 -5.215682
-0.152893 -0.726386 -10.015296
-5.873791 -7.686810 2.260571
6.762272 3.619657 6.625011
-6.733200 0.062838 -7.474331
5.369246 -2.117227 8.193670
-9.320045 0.721782 3.878720
8.128692 1.102057 5.749444
2.359737 -2.369711 -9.533355
2.900545 -1.394185 9.433845
3.951314 0.784904 -9.123081
-2.008906 3.281159 9.343336
0.009002 1.139576 9.957063
-0.941588 -4.233024 -9.015062
4.114275 4.570431 8.001827
-9.321735 3.059912 2.065097
-7.148918 6.127566 3.240565
-2.279759 -4.372729 -8.741982
0.332081 -7.662625 6.449032
1.335241 0.874666 9.921788
-9.856872 -2.264868 0.323997
6.412617 7.552595 0.366406
6.939137 -7.232954 -1.210341
1.354677 0.016044 9.882932
-9.510993 1.035418 3.118679
-3.846509 1.097423 9.159327
-2.036526 -6.106501 7.988717
-8.324348 -2.118981 -5.326309
-2.190753 7.124813 -6.787329
-6.256757 -5.505113 5.536758
-7.630613 1.348848 -6.380229
-1.646638 4.647236 -8.847190
9.941648 1.071469 -1.021634
-2.984954 -4.452878 8.572200
0.662615 5.492361 -8.394903
9.240742 -2.106263 3.447097
1.310243 6.320675 -7.564839
2.311363 -1.215056 9.592059
5.385734 -6.086502 -5.701977
3.085447 9.078726 -2.825882
5.056582 5.635343 -6.365101
-2.896594 9.325299 2.038343
-0.951120 0.565941 -10.033636
-0.187968 -0.021087 10.008408
4.113567 7.375210 -5.275231
-9.449493 2.860196 -1.537294
-8.378265 5.153772 1.933516
-0.826969 0.984606 9.936591
-3.426145 5.231785 7.997393
-0.333101 0.076491 9.919342
1.553428 0.253649 9.884246
2.009856 -7.785698 -5.902848
-1.933101 -0.126697 -9.827384
-0.237170 -2.084219 9.674034
6.964104 -7.152233 1.830723
-3.077796 0.967775 -9.493337
2.156669 -0.540098 -9.745881
6.389033 -6.892260 -3.100545
-8.134701 -2.291753 -5.220292
5.698422 7.369420 -3.309702
1.312600 1.576969 -9.952131
0.000772 0.001060 9.938279
-0.906505 9.771066 1.298688
1.483425 -4.269017 -8.815801
-4.641995 -5.624676 -6.890980
-4.251440 8.905125 -1.446515
8.004814 0.719237 5.573354
0.364673 1.795395 9.727940
3.640388 4.357434 8.122304
0.879801 -9.777438 2.162001
7.579133 1.754107 -6.100603
-8.747910 2.542839 4.195125
-8.043920 3.296649 -4.901313
2.092853 8.238945 5.650118
-9.009091 -3.027250 2.748136
-1.312735 1.704139 9.767018
5.327523 1.678811 8.262180
-0.365901 0.634242 -9.881143
-2.635995 1.278428 -9.619607
-8.241850 5.624272 -0.237545
-6.264046 -1.280821 7.718981
-0.414730 -2.048940 -9.522538
-4.946562 -4.939740 -7.351463
-0.998998 -9.345670 3.075601
3.442536 2.248828 -9.131192
1.808093 4.728694 -8.416763
9.784938 0.501332 2.366187
9.407914 3.225150 0.723906
-0.042247 -0.128345 10.105304
6.338938 2.636606 7.349119
-0.135826 -0.035983 9.907140
-0.409349 -0.121709 -9.934929
-3.642352 5.384263 7.509107
2.330899 -7.997634 5.596980
-0.298793 5.521385 8.262781
6.559570 -1.860165 7.130252
6.360308 -6.371505 4.745953
-6.173937 -0.845602 -7.907475
-7.679555 3.742245 5.240152
1.452805 -0.096470 -9.719277
-0.312826 0.507537 -10.047872
-1.277767 0.397732 10.086721
-8.825370 1.811493 -3.986045
0.882150 0.758876 -9.966813
2.028672 3.321409 -9.276884
-0.922001 0.364497 9.863468
-1.216144 2.083462 -9.516305
1.920738 -0.827710 9.693994
-0.215184 0.614740 9.958748
3.947008 -5.328824 7.508822
-9.710296 -2.370133 -0.645321
-7.025073 1.263585 6.999896
8.408675 0.373007 -5.208596
0.804991 8.673177 -4.723202
0.066793 0.261622 -10.147440
-2.277348 0.428505 -9.741281
-8.153475 2.154265 -5.592320
0.975937 -1.132733 -9.846226
4.030151 -8.725408 -3.167795
-6.331186 3.758320 -6.789137
-0.245585 1.170792 -10.097259
-0.515083 3.047728 9.647199
-0.741777 -10.042003 0.533987
-5.534951 -7.907261 -1.958457
1.775346 6.637328 7.293490
-2.735714 -2.290510 9.470811
-4.085917 -0.757988 9.014904
-0.780488 -0.361092 -9.940004
1.757878 3.482172 -9.134889
-7.625673 6.413475 0.984681
-2.524116 -2.245587 -9.333927
-3.649284 1.114882 -9.213796
2.087068 9.483762 -2.552478
2.789610 8.828123 -3.962376
-0.729465 -4.517826 8.807124
-9.648107 -1.869005 2.303300
4.905808 6.004332 6.090758
0.997164 -0.286403 -9.951348
-8.478561 1.428365 5.197890
7.221400 6.474601 2.691029
0.912296 -6.297975 -7.861342
4.105563 4.645879 -7.831094
4.729969 3.269318 7.948704
8.006303 -3.260799 -5.006463
-5.373352 3.565758 -7.405138
-0.282211 -9.600453 2.827114
-0.053807 0.254459 -9.909428
-3.551051 -9.132233 1.990927
2.333852 3.214728 9.045843
-5.137930 6.650867 -5.446913
-7.024005 -5.414736 4.852746
0.107140 -0.187118 -9.970377
-9.665444 2.989617 0.880280
-1.613708 -0.160844 9.817195
-0.388217 2.030243 9.566600
6.628236 -5.548896 -5.321617
-0.623911 -3.284682 9.463200
-6.359163 3.467799 6.969734
-9.701533 -2.292016 -1.562906
0.316618 3.477239 -9.423503
-9.059866 2.028941 3.889387
-9.299560 -3.786314 -0.608714
-1.965281 -3.525715 -9.047421
1.674624 4.817766 8.739154
-1.629388 -4.082618 8.863647
-3.157637 -4.280299 -8.358777
-2.723680 0.468492 9.589365
-1.498925 -2.445960 9.649070
2.647166 1.813872 9.396170
-4.349373 -0.001794 -8.979431
5.130079 1.490045 -8.521750
6.197507 -0.622953 -7.717087
-8.180782 4.138624 3.683226
0.323413 1.185731 9.791241
0.610443 6.091402 -7.992725
6.117026 0.803489 -7.586570
-1.364213 0.305918 9.883566
-8.123698 1.445972 -5.511208
-5.311078 6.896704 4.861480
4.190807 -3.314255 -8.611559
2.804546 -1.386088 -9.378345
-1.021967 5.393526 8.385930
-1.302047 7.104694 -6.553222
5.417268 -1.957477 7.954147
-9.149413 0.572693 -3.873294
6.811028 7.083012 1.644217
0.364400 0.508327 -10.031041
7.802898 -6.284409 0.617892
-0.852982 -3.431135 -9.450021
-6.739482 6.029084 -4.200050
-3.570002 -0.409787 9.503646
2.647817 2.513831 -9.187925
-0.088962 -9.767006 2.834865
-1.497139 -3.404854 -9.236890
0.595370 1.150656 -10.081957
-5.791343 -3.944485 7.197535
6.009398 -2.784731 -7.431000
5.042899 8.226461 -1.441917
-4.949469 1.445012 8.553259
8.781101 -4.200464 -3.000678
-6.157036 7.733197 -2.012535
-4.171267 -3.698823 -8.278633
-2.527562 -3.083540 9.193737
-2.090255 -1.105542 -9.496300
-4.812800 -3.330367 8.103677
-2.945855 4.113602 -8.599339
1.556697 9.719321 -0.509201
1.503215 8.436395 -5.157245
-4.832663 -3.188930 8.128809
-0.906987 -0.265132 -10.002865
-5.365412 7.149170 4.240315
-9.373784 -2.924502 1.597567
6.025788 -2.247459 7.796529
3.929602 5.138718 -7.917075
-7.325538 -1.429750 -6.565658
-6.173684 5.480628 5.500594
-5.377653 -3.090846 7.680621
9.365515 3.492016 -0.342531
-2.117079 9.524878 -2.554370
9.115957 3.852851 0.353463
9.456388 -2.406678 -1.583086
0.778742 0.197465 10.118729
1.979484 0.107585 9.820980
-4.767970 7.175375 -4.784246
-9.306050 3.353811 0.341556
0.898800 -0.318936 -10.038452
-1.136617 -4.623074 8.699861
5.124294 -6.698416 5.029904
8.073563 -5.651330 -1.296916
-0.033341 0.043302 -10.192663
2.747225 -1.805614 9.485598
8.698669 1.863068 -4.466723
6.341730 7.592003 1.084317
6.611673 -3.010188 6.741605
0.733786 5.588613 -8.399425
-5.056232 7.874537 -3.700363
7.527247 3.138546 -6.064391
-5.910012 -0.318484 7.975449
-1.169016 -6.969543 7.109387
7.080429 5.722091 3.988803
-0.209383 8.632476 5.003015
2.349015 -0.937244 -9.708392
5.511895 -0.218772 8.211794
0.685728 6.019651 7.903922
-2.055612 9.381802 -2.155561
2.474415 0.476009 9.702953
-7.286657 2.165297 -6.523850
-0.421985 -4.533638 8.988617
-8.077630 -5.925148 0.185612
0.112792 -8.485781 -5.336406
-3.754345 -6.237478 -6.852429
-6.122129 -2.989762 -7.282554
2.803687 1.572880 9.435976
0.098385 -0.069372 -10.072468
1.251368 -3.062043 -9.525035
-6.146652 -7.109646 -3.748509
-4.649026 5.796873 -6.427763
-1.949134 -7.641030 -6.332519
-5.571190 -6.866589 4.540215
1.452325 -8.294367 -5.301519
5.602021 -2.395227 -7.950602
-0.051128 -0.028430 -9.925511
8.077855 5.680180 -1.307000
-3.886812 -7.466008 5.563435
0.683453 -8.542344 -5.235324
9.006572 0.162917 4.535066
-0.146528 4.975230 -8.744125
1.625033 9.412995 3.018759
-7.550545 -2.864480 5.501228
-4.764915 2.529990 -8.451147
1.008216 -1.527339 -9.818484
1.381604 -5.921708 -7.773042
8.888926 -2.218118 -3.985058
-6.272559 4.084928 -6.586507
-7.659892 -6.216562 -1.839172
-0.075380 -0.151749 -10.050264
2.031601 -1.198602 -9.562638
7.399080 4.197325 5.271872
-1.240208 1.935587 9.692537
8.254214 5.211862 -1.608418
4.765347 -4.034266 -8.000274
-9.446156 -2.387266 -1.204058
3.885353 -0.013330 -9.262010
0.005311 1.419944 -9.655240
-8.805796 -2.686318 4.284585
1.287749 0.062514 -10.087009
5.016153 3.378788 7.888789
-8.236188 -3.846107 4.163010
0.023718 6.302333 7.776875
-7.955550 2.318258 5.418508
1.427216 -0.054371 9.847464
1.719543 3.502232 -9.187770
-9.937289 0.838987 1.557204
5.611037 -3.815140 -7.224331
-6.091511 7.581354 -2.229967
4.491250 8.166891 3.127065
2.713559 2.420494 -9.397475
-8.508429 4.040783 -3.338530
6.987834 7.039631 0.472649
-2.534115 -9.589915 0.803001
0.132793 0.132183 -10.001481
-0.474216 0.247404 9.908802
3.867259 -6.343012 -6.649562
5.934501 -6.527679 4.496362
-3.222754 9.042864 -3.102436
-2.760854 2.820803 9.339595
-4.479508 -1.038611 8.814292
-4.597940 -5.370152 7.265195
7.545628 -3.832583 -5.459277
-2.959441 -1.118894 9.478658
-3.100263 -5.657941 7.537028
-2.813252 0.043888 -9.521170
0.365115 0.328513 -9.949103
-6.103110 7.808258 0.125628
-1.301492 -9.434130 2.315309
2.290520 2.841924 -9.381964
-8.583119 1.786794 4.863258
-9.129928 2.446725 2.858321
-8.476333 0.085786 -5.237952
-8.130414 -4.382104 -3.858064
7.887049 1.059353 6.169152
-8.940161 0.504456 4.439245
-3.582692 0.475889 -9.330038
-4.691649 -2.363229 -8.548544
0.216245 2.585916 9.619286
-7.626612 2.068792 6.079011
6.826626 -7.408611 1.125199
2.446328 3.162800 -9.198069
2.960739 3.236173 8.883985
-5.958380 7.882438 0.511730
-3.729576 -2.535774 8.971737
-7.465186 1.132162 -6.629929
0.661329 -1.030300 -9.962318
-3.657388 0.240762 -9.210364
-3.556488 8.943697 2.401542
2.638775 1.659115 -9.505090
-8.631186 -2.727758 -3.697916
5.333876 0.975850 -8.363540
-4.533618 -1.238060 -8.770914
-0.654612 9.869073 -1.632107
-3.300422 -3.514546 8.696748
-3.085870 -9.183173 -2.566943
-7.001510 6.107669 -4.076574
9.094977 3.860097 1.451544
-2.695845 -1.066852 -9.635382
1.440540 -9.478809 2.741893
-6.505696 4.590873 6.119581
6.861323 -6.818608 -2.027977
-1.472067 6.284019 -7.634441
6.935937 2.758708 6.492314
-7.021963 6.971229 -0.328719
-2.039837 9.705649 0.631319
0.505330 1.721374 9.880210
-4.354203 -8.516169 -3.111336
1.568069 5.040591 -8.483211
6.340707 0.304350 -7.563930
-0.914614 -9.295651 3.360604
-0.158951 5.319010 8.316459
-9.797321 0.874344 1.982495
-0.009823 -0.005497 -10.096773
-0.259296 0.679001 -10.009463
3.913234 -5.984451 -7.165877
8.631542 0.723280 -5.187722
8.938095 -1.016760 -4.218756
-8.024944 -1.261908 -5.666500
3.691675 -9.295645 -1.379418
8.775906 0.765718 -4.807668
3.670107 8.963819 -1.590327
-1.463520 -0.872586 -9.863875
-3.052192 3.393530 8.855472
-9.677111 -1.850505 2.275344
7.067282 -2.108738 6.812709
-6.529707 5.991721 4.278548
6.158154 -0.366803 -7.683847
-6.693775 6.703349 2.766555
-0.906112 6.521848 7.603034
8.718189 0.442729 -4.920108
-4.710628 3.566711 -8.140984
-1.148954 -6.962418 6.925491
4.125699 -1.281876 -9.093329
1.971498 -0.681991 -9.797104
4.882609 -7.843206 -4.180614
-1.846249 -0.435541 -9.894651
9.929205 -0.742832 0.059015
-2.116330 2.504487 9.534633
9.644198 -1.604392 -1.754096
-1.716137 0.078434 9.926013
0.266374 4.769772 -8.788836
-5.677914 -7.736711 -2.573729
0.806475 -10.043288 2.297904
-5.437795 0.069215 8.397823
-6.662703 7.146203 -1.939381
8.644026 -4.648858 -1.226603
1.085938 -8.505818 -5.135660
6.162042 -6.208189 -4.560279
7.134173 -1.658838 -6.556549
2.024895 5.089494 -8.248373
0.714165 0.875345 9.890456
-7.378626 -6.532330 1.432462
5.173927 5.875118 -6.252640
-8.754977 -1.672770 4.335327
-1.114041 -0.054617 -9.827016
-6.781678 5.121816 5.211013
7.785948 -4.874277 -4.017045
-2.407605 5.717619 -7.681462
7.276988 5.731933 -3.807582
0.240768 1.417424 9.883291
0.278633 2.872136 -9.559106
8.539277 4.157722 3.243576
-3.913904 6.720182 -6.009574
-1.166784 -9.863754 0.242291
-0.460036 1.541221 9.894353
6.213119 -6.723166 3.648808
-1.690682 -1.822359 -9.709173
8.454568 -5.297959 0.304715
-1.946150 9.890073 0.287188
1.606394 -6.644506 -7.260822
-9.655992 0.568027 -2.619491
-0.084595 0.156340 -10.071873
2.749008 0.575625 9.642191
6.715000 -6.068831 -3.814848
7.158084 1.115251 6.779134
4.980605 -1.935694 8.339401
4.689257 -4.611806 -7.397576
-5.377107 -5.015568 6.907178
-8.582321 1.975954 4.690205
-3.746618 -6.875068 6.263250
-3.641857 -5.721141 7.532307
8.604219 4.139066 3.182455
7.196718 -6.788494 -0.206950
-4.195346 -7.533707 -5.159893
8.554232 -4.219990 3.229629
8.366096 5.676442 -1.156259
1.713235 -3.615314 9.215301
1.897396 -5.342314 8.229469
-6.883831 -7.083940 1.471812
-5.270049 5.717886 6.287853
-2.348832 -8.036832 -5.442863
-2.712160 -1.612986 -9.495122
-9.162172 2.573196 -2.856587
-0.492981 0.317386 9.895151
-3.323527 -6.372216 -7.005843
6.586939 -0.601072 7.753240
-8.370715 -4.936882 -1.999210
2.954961 -8.272961 4.928016
0.696917 -3.204893 -9.618335
-9.353941 -3.317469 0.548081
-9.478504 2.275447 2.386561
1.200671 -6.619871 -7.464964
-1.293679 -0.819355 10.011373
6.980456 -6.241381 4.038278
0.180565 -2.340916 -9.740883
-0.911372 6.204933 -7.692383
9.161329 -3.220425 -2.791447
1.941224 -5.407149 -8.214821
-5.003030 -8.503684 2.095546
-0.514611 -7.362442 6.646495
1.596150 7.221275 -6.673803
6.693241 5.558872 4.901221
9.339710 3.829398 -1.030852
0.437128 9.938262 0.037701
8.478808 4.978396 1.857901
-0.827003 -3.467065 9.244594
3.232474 0.709467 9.520125
-7.326102 -6.746722 -0.267522
-6.790557 1.142465 -7.279514
8.276229 5.478248 -0.031790
-5.387709 -7.590180 -3.612225
3.884229 -4.677269 8.001870
0.779115 0.277650 10.022660
-3.761619 -5.453185 7.509940
6.857734 -5.100244 4.728051
4.935265 4.148043 7.767153
7.127805 2.949368 6.461523
-1.779802 -0.013569 -9.673616
-5.334772 -5.227519 -6.733156
-1.896107 0.789273 -9.722054
7.479783 -0.313845 -6.671620
4.890143 4.406839 -7.441720
-4.723773 -1.378818 -8.783774
0.003820 -0.012464 9.897822
9.237471 3.656660 -1.037530
-2.490325 -1.183741 9.616442
4.040121 3.959089 -8.561441
-2.007629 -4.144971 -8.819521
-4.720706 8.853971 1.453630
1.477708 -0.334303 9.902554
-4.966983 -4.175880 -7.556352
-7.556645 -0.891675 -6.536830
-1.149194 1.238170 9.801446
3.610882 3.359085 -8.740728
0.886132 -0.414728 -9.925732
8.408572 4.875610 -2.389426
-7.803711 4.540130 4.498914
6.839692 6.204690 -3.814317
-7.696966 5.822001 -2.562343
3.329358 3.183246 -8.833181
-8.683086 -0.499078 4.799951
4.438457 8.931015 0.162307
-10.008290 0.173737 1.061534
-2.641481 1.474724 -9.452858
-2.670130 -5.934596 7.549345
0.483152 -9.599850 -2.706301
8.416021 -1.214240 5.452658
5.431831 0.379222 8.416722
2.505855 -2.683581 9.272730
-7.156332 -0.926959 -6.596450
-3.044322 -1.658008 -9.303216
-0.026485 -2.534620 9.818134
-4.187750 -1.763687 9.106681
0.027888 0.052556 9.846221
-0.660956 4.814504 8.576997
-3.293358 7.271844 5.899748
0.796431 -2.060678 9.645614
1.626401 -5.206769 8.280979
-9.836613 1.194962 0.205124
2.940218 4.622085 -8.185920
0.617152 7.485444 6.584270
6.687506 -5.724168 -5.213119
-1.578296 -1.065176 -9.687811
4.919288 8.431804 -2.251481
1.444536 5.071551 8.562062
4.535133 4.249670 7.811057
3.020914 -0.430444 9.389840
6.319669 -3.175483 7.162496
-0.631494 -8.406228 -5.260777
9.558713 1.868052 2.034248
-2.819084 -9.441656 0.901131
-0.893985 0.953300 -9.970754
-0.945391 4.805330 8.857107
-2.975573 2.963597 8.874185
-7.730627 0.857868 -6.343413
-5.294198 5.863011 6.268036
0.628948 4.761455 8.755270
2.095418 -5.024249 -8.385884
-7.864359 -6.295075 1.237642
-3.246557 -6.888411 -6.477064
-5.450897 -2.594036 7.926126
-2.332625 6.264191 7.674352
8.999328 3.211963 2.312216
6.233956 -3.884517 6.852024
-6.226624 7.983864 1.685002
8.212880 -2.303905 5.326679
1.992296 2.930171 -9.282760
1.340016 7.456499 6.580904
3.598496 -1.590241 8.936571
10.041784 1.072985 0.403509
3.760411 -2.590585 9.156745
-0.152273 -0.421766 -10.188925
6.049173 -7.615965 1.834388
-1.078348 0.213204 9.985171
8.558875 -4.017298 -3.221291
-4.622196 -1.261498 -8.820062
1.374808 -1.933234 -9.698382
-1.249994 -8.118540 5.700160
-7.177962 -4.686483 4.789037
4.768092 8.952729 1.089796
0.536160 0.604630 10.005745
-7.135696 3.618218 5.800433
-1.530012 -9.474555 2.507204
-0.259888 0.450730 -9.938630
2.072647 2.788149 -9.514424
-1.541304 1.874329 -9.712286
-2.331947 1.845725 -9.645119
-0.724636 -3.693266 9.327784
-2.995538 0.204097 -9.595259
5.041433 -5.288491 6.979337
2.316224 -0.564107 -9.517233
-6.733553 7.374811 -1.755980
7.030175 2.699633 -6.568685
-0.169336 5.686860 -8.263303
-4.208925 1.529892 -8.701569
1.711314 0.501677 -10.015534
-5.474895 6.846738 4.807059
-5.657762 -0.904132 -8.369719
-3.332161 0.862822 9.357975
-7.815802 6.053793 1.594994
4.718964 -7.865284 3.752373
3.491314 -1.664300 9.312311
1.076317 -9.065683 -4.367583
9.721862 2.342805 -0.233587
2.944059 0.557272 9.430392
-0.766807 0.203326 9.943356
5.729389 -6.944793 -4.328529
9.683391 2.029302 2.000712
-8.543465 5.390752 -0.448168
-1.220440 8.507992 5.167438
-8.988286 3.932297 2.183237
2.208004 -4.371519 -8.912213
5.452992 4.280357 -7.034012
-2.197257 -1.250603 -9.698435
-0.233051 7.117596 6.940116
2.304513 7.935339 5.413703
-6.077355 -2.314437 -7.620709
-2.801963 2.343477 -9.342755
5.178865 7.389485 -4.440661
-3.008355 -2.719292 9.365039
2.861610 9.071869 3.592590
4.625912 -8.852744 -0.577036
8.925124 1.560387 4.400590
1.313995 -0.528113 10.025612
6.810416 1.643479 -7.394440
3.148744 -0.310758 9.413714
-4.895740 -8.761337 -0.945627
7.720719 5.051063 3.934361
-2.992384 8.040035 -5.159919
-4.803768 8.739734 0.866035
-4.327492 -7.952222 -4.450372
6.748710 -5.949126 -4.506756
-3.783183 -7.095861 -6.026896
9.817530 0.622545 1.569724
-0.540349 0.382549 -10.002256
-3.265197 -9.514343 -0.569237
-1.337065 0.807770 10.045253
-6.092284 7.921388 -0.294613
2.820459 -2.002713 -9.368819
8.450149 -1.335872 -4.673144
4.666221 7.573511 4.411198
4.612859 -2.888315 -8.244345
6.764330 7.120826 -2.382741
-0.060491 0.035834 -10.192459
-1.096125 9.671212 1.426644
6.692855 -7.507330 0.958183
4.425289 3.645064 -8.161118
0.912399 9.483278 -3.013628
-3.569515 3.950300 8.591911
6.851686 2.406486 -6.781797
5.400358 1.291932 -8.489683
7.783720 -4.997597 3.474795
2.232777 3.674261 8.933885
5.578488 -2.188503 8.133796
-7.616042 -1.647035 -6.319795
3.298221 -0.908403 -9.461592
-4.333602 6.110402 7.010076
5.002512 -1.418839 8.565117
-3.463214 -1.246224 9.388795
1.869470 -2.106389 9.458132
9.416710 1.505316 -3.046489
6.558207 2.328979 7.243949
-6.470693 -3.616200 6.567913
-0.663664 7.562544 -6.627440
-1.099781 1.291920 9.918817
0.068114 0.056498 9.982774
5.331299 1.185631 8.262555
5.978027 -6.153308 4.952324
-7.428837 -4.897693 4.222939
4.347432 8.923776 -1.023813
-0.730202 -3.189745 9.358890
1.820959 -5.981913 -7.929675
8.402986 4.820029 -2.207099
-7.140984 6.887339 -0.592111
7.474227 -6.640654 -0.776323
0.063826 -0.222921 -9.906498
2.865955 -7.240170 6.428300
6.772293 3.227407 6.778234
-4.767558 4.811529 -7.369314
-6.764281 6.907637 -2.266219
-7.703233 3.104249 -5.910674
-6.574078 -7.235498 2.476018
-4.849159 -7.085266 -5.260409
-1.758823 -3.197371 9.265846
-3.186416 -5.113675 -7.805669
9.642296 -1.197651 -2.527317
-9.081989 -1.255392 3.781624
0.192263 0.044378 -10.032341
-9.964988 0.529218 0.250142
-7.115276 -3.144445 6.458564
-8.028687 6.154362 -0.860323
-0.321553 -9.412957 -3.282504
5.662699 2.812386 -7.688146
-0.462204 -2.078535 9.680809
5.679831 0.144611 -8.435017
-0.388966 9.834004 -0.919861
1.456749 0.304934 9.909320
2.294057 -1.950585 -9.576926
5.842805 -5.284648 6.078531
-3.962199 3.118672 8.662816
1.345657 2.955335 9.561520
-2.315820 -9.698680 0.225328
0.097629 9.803926 -1.603185
1.096430 9.203227 3.525368
2.945642 0.510264 9.615237
3.309677 -1.094230 9.210696
-4.397851 7.650600 -4.575791
-8.842928 4.711099 0.848519
0.211390 0.302867 -10.011739
3.254134 8.139121 -4.809475
-4.868771 -7.849505 3.873775
-9.827590 -0.250404 -2.515086
-2.740222 2.877746 9.290172
-2.249365 -1.159969 9.490675
2.142854 0.675189 -9.863292
1.756728 4.862945 8.350782
1.882539 4.953127 -8.587371
2.585900 -1.206031 -9.569519
4.694894 -6.840974 5.484883
-5.515842 1.925863 8.414605
-4.518799 -2.243945 8.536064
6.883331 2.835467 -6.714930
-4.262565 3.607079 -8.285705
-9.608917 -2.749839 0.225752
-0.137604 -0.999959 9.886536
6.964557 2.277966 6.857049
3.550566 -4.508407 8.354678
-8.424621 -3.804330 -3.894307
-0.886859 0.396336 -9.887493
1.615671 0.380598 -10.013564
-1.032120 7.513378 -6.791912
8.191003 -1.497034 5.639009
3.233924 -2.692320 -8.984807
-2.183556 -4.084487 9.008938
3.722168 8.489625 -4.137619
8.089807 -4.218389 4.222931
6.919382 3.468420 6.385413
0.115815 0.121738 -10.048366
0.835019 4.250817 -9.089355
-4.757497 -0.736563 8.795319
1.259001 -1.674883 9.781504
-1.348242 7.188124 6.877787
-1.770779 5.675634 -7.958404
7.900593 2.583429 5.725757
5.236481 -0.746236 8.318395
6.195525 -0.843103 7.654424
7.092792 5.917247 -3.905837
-7.516221 -6.626087 0.309637
1.938508 0.710390 -9.743507
-1.157444 -3.363013 -9.501981
2.343048 0.175321 -9.613205
-9.225873 -0.686655 3.676113
-2.522401 -3.728339 8.860724
-8.410015 4.982497 2.951320
0.762764 1.212881 -9.840951
2.343745 9.381099 -3.048266
1.492978 8.312454 -5.503744
-3.111661 9.446755 -0.398436
-9.522967 2.663887 -1.307365
-1.807037 -1.626489 -9.613226
6.148507 -7.663112 -2.271100
2.709193 3.574083 -8.934262
0.687432 -1.663662 -9.758189
7.064738 -5.174799 4.940871
2.836621 6.081878 7.336581
2.759052 1.078145 -9.540876
-5.280584 -8.303872 -1.967977
-1.050198 -3.705116 9.064320
-5.793071 -0.174621 8.207766
2.254128 -6.793968 -6.932115
-4.703978 -3.494017 -7.925616
-3.441763 9.399521 -0.819024
-4.554759 -6.085551 6.437827
-3.119271 2.894896 9.158629
-9.240534 -0.975440 3.387962
0.024591 1.227413 -9.913419
1.816171 -0.262985 9.819880
6.706907 1.598504 -7.153015
-0.627870 4.760475 8.856703
3.638966 -2.189121 8.965385
3.354100 6.857731 6.408018
3.055755 3.218598 -9.007776
-9.915001 1.101902 -0.373197
1.821795 9.772027 -0.098714
2.158154 8.129608 5.335163
5.314384 7.297073 -3.911923
9.487309 -2.079684 -2.699604
1.593699 -8.797610 -4.419902
-3.901999 8.909136 2.469398
-2.359583 -9.505867 -1.406570
7.536701 -5.122905 -3.819604
5.575121 5.217884 -6.739650
3.534904 9.078470 -2.076860
-1.134109 3.452255 9.321025
-2.747103 -7.697309 -5.838042
9.553481 2.811506 1.656574
-7.472064 0.843599 -6.646464
0.003377 0.022238 9.965033
4.461859 -8.611478 1.316047
-1.565362 1.535358 -9.609570
2.159727 1.204781 9.586603
-0.668419 -0.522252 10.127941
-1.471775 -3.350684 9.182702
3.421728 -5.941095 -7.058234
-0.027643 -3.150069 9.299963
5.544725 6.932499 4.772259
-0.187000 2.422093 9.697688
-4.831310 0.805568 8.736161
5.186909 -7.056937 -5.018388
0.019341 1.677583 9.696334
-4.127817 4.406826 7.964496
-0.086464 -2.816713 -9.575914
6.253179 -6.704905 -3.723702
-4.774593 -7.884971 -3.632322
-3.046067 3.143283 -9.008330
2.384112 7.776542 -5.717923
-10.031050 -0.020442 0.626486
-5.643379 -2.369460 -8.022061
-0.107801 0.017069 -10.044030
5.516192 -1.885750 -7.981332
7.985234 0.722088 -5.766043
-4.479443 -5.611758 7.051208
-4.405915 3.809880 8.074140
-2.608228 -2.595957 -9.112621
-8.053875 5.196230 -3.147592
-3.396541 -0.416343 -9.345666
2.995745 6.390230 -6.964577
1.604088 4.012164 8.940944
-2.481420 7.407588 6.253289
-4.107481 -6.944008 5.783966
5.655143 8.108087 -1.763254
4.845902 -1.884753 -8.605409
0.083607 -0.152483 10.111422
-7.735116 -1.239398 -6.268385
2.980424 -1.815287 9.386188
6.315687 -5.912187 -5.034780
0.600502 -8.385237 5.656523
-6.261879 -6.503422 -4.089017
-3.561532 -9.212614 1.373652
8.162616 -2.214035 5.368582
0.033233 -4.546330 8.980708
8.039755 4.911324 -2.709127
-6.972459 7.156634 1.031367
-4.060375 -2.459740 -8.699583
0.389617 -0.108804 9.929411
-7.797418 0.755812 -6.161555
-0.105806 -0.655212 10.044552
-2.941768 -2.680666 -9.260892
3.343809 -3.810060 -8.615862
1.966595 8.935278 4.143902
9.024502 3.704650 -0.500650
-1.000659 1.627362 9.728143
0.660097 -0.494072 10.010307
-3.160460 -9.533040 0.751249
8.000248 2.592062 -5.301242
8.165380 5.530467 1.612332
-8.001893 -4.915474 3.095313
3.400878 -0.540742 -9.415217
1.567758 -5.932832 -7.785935
5.010803 1.861346 -8.537998
-8.677306 1.500220 4.915493
0.138530 -0.206893 9.857120
-1.267233 9.762046 -1.442554
6.364682 0.476346 7.641301
-1.023982 -0.552282 -9.817420
-5.378792 -6.931581 -4.816069
1.563710 4.119286 8.984273
4.553967 -5.213418 -6.832069
4.844662 7.624948 3.983863
-4.616095 8.380394 -3.098156
0.250726 4.097611 -9.157111
9.038613 -3.706838 -1.851499
-3.585664 0.467115 9.175548
-0.599183 -3.042401 -9.216209
-4.037276 -3.112864 8.694005
7.001664 -6.956671 0.954775
6.952056 -5.908802 4.112471
7.090786 -7.137969 -0.632502
-2.695724 9.279583 -2.301655
0.280840 -1.434804 9.901397
-4.370686 -8.687576 1.660463
-9.398603 2.960155 -0.366214
2.270266 0.086735 9.621987
4.202793 4.330127 7.843498
4.340266 1.373843 8.850878
4.786270 -2.452173 8.352555
3.213037 0.707987 -9.280260
-3.236408 1.967318 -9.031144
-0.692807 -0.086479 9.905104
5.076822 -2.937554 -8.171930
5.818083 3.503985 -7.184895
1.662354 -1.661738 -9.769652
-0.419211 -7.262237 -6.985684
-1.956670 1.655514 9.546674
4.373277 8.646364 2.038708
3.313824 0.425512 -9.342638
-0.435673 -5.578287 -8.181641
2.879207 -1.239875 9.577469
-8.019350 3.961270 4.384434
3.172918 -9.320479 -2.445870
-7.734312 4.222935 4.556233
1.727140 6.777563 -7.101927
-6.226997 -0.294167 -8.046924
4.310289 -7.263887 -5.301367
-1.102005 9.553470 -3.387088
2.443952 4.038580 8.829354
3.053831 5.352448 -7.794006
-3.005928 -9.332256 -0.584022
0.914632 -2.999970 9.328095
-0.096473 -0.991419 10.059503
-5.790740 -7.848091 -2.358446
-9.600750 -1.536147 3.068993
7.286411 2.345440 6.388042
3.393945 -7.693839 -5.269844
-8.770364 2.864409 -3.642597
1.501598 4.034588 9.049410
6.956768 6.131117 3.901714
7.370597 -6.655066 -0.939227
-3.043714 -9.557838 -0.640946
2.747500 -3.997702 8.674013
3.875364 8.817862 2.699687
-0.394335 -3.407095 -9.583227
9.029252 1.238246 3.980754
-0.743803 -6.923252 7.043373
-6.649518 2.658342 -6.983208
-4.850459 8.607962 1.186340
9.037676 -0.959993 -4.184118
-6.333390 -0.138066 7.707789
3.246672 -0.615962 9.501292
-7.662218 6.338429 -0.963464
3.941072 -2.597907 8.782068
0.451335 7.087935 -6.854848
2.901397 -4.497180 -8.353218
9.913433 -2.215999 0.154388
-3.186039 3.935427 8.531019
2.646797 8.681108 4.506180
9.809735 -2.562601 -0.294570
-0.492781 9.404087 -3.102149
-2.219588 -1.443590 -9.626949
4.218247 -7.488958 -4.930886
-5.938608 1.384329 -7.794593
1.894777 2.419146 -9.575962
4.802307 3.934768 7.656345
-8.014297 -5.294023 2.263537
-8.624620 -3.592659 -3.118062
-3.730012 4.227109 -8.191889
5.878584 3.670510 7.281919
-5.402422 1.862264 -8.263579
-1.824458 6.074104 -7.919771
-0.321775 4.952917 -8.624898
-0.974735 0.368032 -9.900362
-0.060501 -0.025255 9.952750
-1.542609 -7.027132 -6.800241
-2.990602 -3.405604 8.907197
0.461695 -9.558159 3.267649
1.127522 0.424529 -9.970679
9.628182 -2.428893 0.629531
-0.078702 1.084776 10.004591
-4.323534 1.101063 -8.941094
-4.880911 -0.163236 8.694052
5.956509 -7.766338 1.894987
5.073720 -0.868687 8.630489
0.654621 -9.618557 -2.902000
2.065234 -9.862147 -0.166537
5.771029 -5.310806 6.104354
-9.722413 1.302172 1.144568
-0.668503 0.733231 -9.848909
-4.785448 8.152064 3.498421
-2.254125 9.478387 2.246655
-6.035488 3.910652 6.987295
3.157384 2.146291 9.261219
6.415503 1.002920 7.740430
-9.389220 0.553943 3.235005
-3.838612 6.751778 6.194457
-2.194284 -0.214053 9.547440
4.622797 -5.413018 6.843000
-0.538101 -8.358390 -5.539845
0.853843 0.144878 9.790696
0.351794 4.169095 9.212316
-1.746803 6.458659 7.348048
-0.836736 -2.766525 9.639649
0.087123 0.298801 -9.974767
3.074383 -8.549929 -3.890845
2.714724 -5.901746 7.515757
9.738683 1.908043 1.099021
-7.072866 4.773622 5.144014
0.585881 -4.242339 -9.027296
0.409263 -0.494003 -10.073959
0.525439 0.709619 9.975859
-0.556780 -3.901436 -9.195467
7.482639 4.410935 -5.100976
-0.028587 -8.936548 -4.667295
6.725361 3.926159 6.362781
0.039958 0.011683 9.967570
-0.282000 4.838510 8.614822
-6.736508 3.940518 6.184411
-3.702752 -0.901900 -9.074595
-0.345903 0.355907 -9.928762
-4.428116 -7.748650 -4.390164
-9.063328 -2.989583 -3.088015
8.646336 -1.416461 -4.846763
4.997079 7.667913 3.978825
-4.941273 4.330705 7.437063
2.615101 -0.434040 9.744863
-0.398134 0.574027 10.021613
1.314043 3.962928 -9.244412
-1.978916 9.431408 2.455305
2.874128 9.506939 -0.851330
-3.295210 0.735450 -9.470832
-2.133976 7.970739 -5.527718
5.992110 7.835349 -2.008126
4.218599 -2.033702 8.836727
8.158019 3.160393 5.020094
1.913537 3.183146 9.412045
5.928561 0.297084 -8.061723
-0.177775 -5.273099 -8.642076
-0.364642 0.873711 9.832155
-3.323280 3.486233 8.876252
-0.335140 9.801489 -2.102357
8.470665 2.200825 4.685795
-3.254511 5.469841 -7.519889
1.664740 8.457955 5.133050
3.545647 6.009585 -7.291519
-9.466871 -0.001955 -2.700746
4.484413 1.381463 8.835344
-7.764351 -0.338750 -6.308283
-3.868156 -0.706015 -9.215789
1.121163 9.605827 1.989886
-8.433002 0.047210 5.327638
9.618559 1.588596 1.018890
-3.398595 -0.803412 9.186614
-1.694334 8.149155 -5.297798
3.050759 -9.412833 -0.122683
3.643349 2.211115 -9.040543
0.191774 -0.077904 -9.944785
6.212029 -8.035540 0.798895
1.740318 -3.510091 -8.996640
-8.889911 3.927287 -1.876489
-2.465710 3.663299 -9.170106
-3.489483 -8.913768 3.253737
-4.110224 1.859172 9.006340
-1.940820 -0.615162 9.604026
-8.127873 1.281496 -5.689665
-5.744046 4.567561 -6.719154
4.659559 6.428390 -6.199620
3.990384 -3.693553 8.548452
-3.763024 0.088672 9.384900
4.695830 4.072713 7.750490
2.143105 -8.411091 4.922482
-2.900043 6.577430 -6.953831
1.361528 -1.878782 -9.540423
-7.404223 -5.543614 3.565779
0.353966 -6.338411 7.621149
-0.175453 -0.720847 10.108741
-1.547289 0.505625 -9.984326
0.628979 4.247549 9.011335
0.138581 0.800747 10.031590
1.840559 0.963539 -9.621093
-0.268577 2.480876 -9.705243
2.169211 -3.864951 -9.080949
3.101322 -8.603871 -4.123002
7.589359 -4.343540 4.690228
0.003370 -0.079516 10.094794
1.848982 -1.294556 -9.738913
-2.806187 -4.583917 -8.477689
5.406158 -0.325809 8.266344
-9.510980 -2.248034 1.854744
3.243464 -2.658876 -9.013634
-1.722726 3.414118 9.249067
-0.943822 1.390084 -9.673441
-6.896870 -4.703010 -5.423079
-0.688942 -9.844079 1.686686
-4.183944 0.789827 8.929184
-0.886780 8.742457 -4.802423
-1.329870 0.971918 10.052362
-0.587614 -1.769987 -9.955949
5.183976 -8.324928 -1.674409
4.510623 5.737582 6.893771
-3.467790 6.086274 -7.214164
-5.202822 6.788881 -5.233360
-3.752109 6.818388 -6.233441
1.135268 3.060719 -9.476200
-3.617401 -1.718080 9.184380
-0.835476 0.024295 10.076181
-1.662349 -0.051751 -9.846194
8.190513 -5.687797 0.893544
-3.316461 0.057666 9.424994
-2.021041 -3.063657 -9.364751
-7.643004 -5.008359 4.228706
0.203195 -8.930101 4.082322
-5.745491 0.306699 8.238237
7.033442 -0.237654 -7.056024
-3.178325 2.578593 -9.157130
8.063206 -2.063845 -5.324504
-6.489509 6.925015 -3.510891
9.873643 0.127898 1.266733
1.165425 7.891513 6.124196
-5.205990 8.352267 -1.577202
6.027649 -6.466237 4.530071
0.672508 2.306858 9.890376
-1.554473 -9.253657 -3.290383
-1.415326 -3.649756 -9.106458
-6.370414 -6.226998 4.311282
-1.076853 -1.088244 -9.790810
-2.763450 0.190982 9.739353
4.747622 -1.850149 -8.778220
-0.426579 3.744936 9.070582
-3.335082 4.549132 -8.245600
1.823732 4.610456 8.540922
3.847782 -8.821515 -2.075034
0.462556 -0.611351 9.958296
1.062679 1.198355 -9.819039
4.641737 -8.363347 -2.992837
3.263481 9.445542 -0.120209
-9.490247 3.094169 -0.570052
4.045254 -6.823809 5.821359
3.118253 5.698381 -7.652578
-9.181031 -0.181783 3.893515
-1.471524 -2.630568 9.589618
0.076664 0.654849 -9.943500
-5.533097 3.271545 -7.718324
-2.936883 1.452112 9.551335
-2.341999 -1.116651 9.783555
-8.760794 1.921668 3.988122
-5.800679 -6.841639 -4.526388
-2.480875 -7.651162 5.954368
8.999322 -1.657137 -3.821142
-9.617945 2.044667 1.058945
0.612973 -7.775025 -6.359397
-8.587304 -3.363215 3.662324
-0.485123 7.797216 -5.996327
2.579178 1.252355 -9.787473
6.221072 7.434763 -1.596521
0.149337 -1.589561 -9.939325
-2.470692 6.074051 7.416859
-1.423900 -9.098959 -3.687618
1.671862 -1.442540 9.506729
0.989444 -9.430545 -2.954110
2.126112 -6.154345 -7.659875
-0.500676 3.642999 9.484214
0.077941 -2.289627 9.698837
9.194260 1.767816 -3.568051
-3.105600 7.623908 -5.409440
-5.622401 -5.710788 -5.886362
5.463193 8.432103 -0.010647
9.649284 1.967592 2.246648
10.105492 0.812805 -0.608617
-0.564817 -1.931267 9.814576
-2.000122 -8.762564 -4.470187
-0.206502 9.809476 -2.017621
-3.870091 -9.267057 0.728427
-2.110685 -0.334712 9.714282
-6.354810 6.716434 3.913290
1.673521 3.866271 -9.053690
6.825725 -5.745160 4.691479
0.571809 9.770173 2.031565
-6.108307 2.072922 -7.685347
-0.592380 -6.975380 -7.235273
-0.538453 0.479250 -9.823134
-9.215505 3.364087 -0.858173
1.325257 2.419021 9.596950
9.408073 2.090819 -2.354849
3.104933 4.334382 8.340833
-0.662615 -3.375892 9.292054
-3.808680 -2.774241 8.783629
-4.258197 8.111252 -3.710801
7.205315 6.695145 -2.358993
5.697983 -7.914327 -1.875235
1.292784 -0.225809 -9.810663
-7.232869 4.006686 5.752328
-3.949070 -9.163152 -1.118663
9.377896 2.061598 -2.751967
-1.129597 0.531690 -10.031682
-2.953961 0.393446 -9.400079
6.259383 8.006527 0.169119
-1.691908 -1.035016 -9.748894
-7.493091 6.266675 2.290606
-4.063666 -1.178809 9.010022
-1.487203 -1.253064 9.938331
0.186816 0.174337 9.894769
-6.042811 -4.272185 -6.348043
-9.022317 -3.789529 -2.589054
0.811569 8.229297 -5.774476
-2.054375 2.586188 9.313905
-9.858048 0.986287 0.348783
5.165664 -4.145061 -7.703254
-0.005218 0.002588 10.194841
6.603556 -0.811132 -7.614321
0.147569 -2.320701 -9.707156
-9.716257 -2.033301 -0.920985
7.445848 1.421706 -6.306774
-0.267972 3.565284 -9.389061
1.922621 -4.480986 -8.661130
3.053881 -9.309469 -1.131714
4.975727 -3.185197 8.083093
-7.796299 -3.277500 -5.280684
1.321307 8.973300 -4.188648
-4.158277 6.579885 6.236475
-9.457647 0.980858 3.293004
-8.222418 -5.186998 1.352150
-2.646992 -5.811075 7.582692
-8.310279 -4.116125 -3.711278
0.882623 8.149314 -5.362461
3.012546 -5.841265 -7.365734
-7.027190 5.111500 5.305046
3.877397 6.170408 -6.656792
1.494801 7.264566 -6.761870
1.140559 4.198068 9.043449
2.877943 -5.313074 7.700207
1.616347 4.597407 8.674045
-1.444985 0.610226 -10.043954
-7.271126 3.570148 -5.927600
8.040569 5.839508 1.066612
1.465776 4.751705 -8.753855
-5.001051 2.200095 8.315996
0.531424 3.423176 9.422595
-1.489177 -5.799037 -8.001223
-7.719771 5.744091 -3.166804
-2.780498 -1.131696 9.693539
-4.967614 -4.021261 -7.514379
-0.643422 -0.088207 -9.864772
-0.542873 0.693098 9.770953
5.684539 2.308882 -7.830942
-2.769283 -6.682697 6.660690
-0.341653 -6.781544 7.289964
2.960324 -3.498846 8.877514
6.800457 -3.936004 6.130040
-8.470538 -2.381756 -4.955611
-0.368414 -0.033755 9.845426
1.177633 6.169579 7.782477
-2.705031 -2.087806 -9.672112
-9.203538 -2.679793 -3.344829
8.124058 -5.306311 -2.268791
-5.199945 5.302957 -6.521129
1.882414 2.489965 9.626157
2.167390 -3.437307 -9.223530
0.013056 -0.068054 10.101352
0.031024 9.775681 0.960638
0.561822 -0.274176 9.971777
1.826703 3.726467 -8.934292
-7.565218 -6.382892 -2.036719
-1.499693 3.592598 -9.186125
-2.070435 -3.792373 -9.016108
3.627889 0.471686 -9.317490
-6.012662 2.842267 7.660775
-0.040419 -0.211806 -10.138311
-3.313524 5.354521 7.801858
-7.915363 -4.863276 3.632253
0.566996 3.534913 -9.306359
-0.637554 -3.854250 9.144446
5.634866 3.015462 7.853014
1.021540 -4.801801 -8.905940
8.087434 -2.234909 5.407444
-0.560643 -0.163894 9.998224
8.477881 -5.481862 -0.039338
1.079472 -2.686812 9.700169
2.524135 8.450379 -5.003209
3.060905 -1.611097 9.386924
-2.912108 8.712425 -3.705115
2.915596 9.214945 2.565407
-0.152316 -8.900413 4.588981
8.599041 4.054462 3.396978
-9.735287 -1.592663 1.874557
3.472417 -3.527807 8.599890
6.212415 -6.488040 -3.997765
1.771040 7.503584 -6.407326
1.859444 6.868879 7.055328
-1.773540 5.212769 8.500625
1.972179 -7.827701 -5.680295
-4.158886 -8.802304 1.363145
6.373483 4.828787 -6.101769
-1.423474 -1.381451 9.827309
-1.260548 8.928812 -4.353716
-1.014904 -5.982382 7.920452
-2.663913 -1.207994 -9.669267
1.364313 -2.992936 -9.521710
-0.245196 -0.558532 -9.913039
4.090915 -5.512762 7.219184
-0.098343 -0.149098 -10.047848
1.123497 -1.652397 -9.807365
-4.548798 -2.840723 -8.648406
-3.947503 -6.259291 6.839218
0.581984 4.764092 8.909779
-6.962138 -2.564520 6.663335
2.769474 -9.042491 -4.128937
6.674851 -6.890686 -2.708986
0.002360 -0.019779 10.190386
6.248608 -7.444861 -2.284040
0.111365 8.248743 5.774779
-0.960219 3.719095 -9.195457
-8.300562 -0.279153 -5.592226
4.052399 2.232494 8.919776
-8.270920 3.954897 -3.754449
1.459773 4.510269 -8.663521
9.626802 -2.247330 0.283538
-2.766634 -9.560060 -1.426800
-6.813468 7.077435 -1.643739
-6.277537 -5.509557 5.585577
8.804887 1.108001 4.968899
-7.488167 6.794224 0.394379
-1.974062 -6.231046 7.566616
-0.666546 -9.399827 2.997983
-1.749977 -5.329162 8.138221
-5.751778 7.767791 -2.267208
-9.792631 -0.972197 0.961385
0.006234 -9.181000 3.637311
3.564858 -2.429208 8.903497
0.981432 -0.356433 9.843032
2.479307 0.453525 -9.706454
-7.096490 3.065872 6.369276
4.590498 8.374117 3.530609
-9.451374 -0.799920 2.537893
-7.568896 5.224531 -3.876869
3.843305 7.976563 -4.685964
6.366113 -7.703185 0.549494
1.098832 -6.278482 -7.801392
-5.197740 8.567129 -0.047561
6.747935 -5.747938 4.785775
7.777008 2.045831 -6.070127
-3.806856 -7.695687 -4.773301
2.376617 -3.921652 8.733645
1.019821 -4.772834 -8.714461
0.276011 -2.037607 9.609594
0.530720 -0.414087 -9.835269
-1.131475 1.759197 -9.609834
8.141735 4.096626 -4.392425
-0.312005 -0.085024 -10.054668
-1.123496 -0.668908 9.895955
2.018260 -9.324657 -2.825443
2.724629 -0.351129 9.504257
-9.046451 -1.317036 -3.794246
8.729136 0.793288 4.713085
8.219175 -4.045570 -3.839725
2.981679 6.760700 -6.891619
-1.887189 0.074380 9.745345
-0.095021 2.519756 -9.640927
5.992183 7.263348 2.133142
6.799757 5.659340 4.314219
-0.550765 0.030662 9.919774
-0.329733 1.108031 9.892442
-0.102026 2.041175 9.868813
-1.403745 -3.901298 9.111954
-9.554643 -2.613064 1.680000
2.510956 -8.587749 -4.657521
0.180432 -6.447421 -7.864972
7.309380 3.127433 6.113648
-0.988550 9.558697 2.849382
5.258183 -1.975369 -8.237770
2.207497 -1.000675 9.627919
-0.078233 5.820425 -8.210833
2.496483 -9.565947 -2.002206
0.810764 0.195012 -9.999974
-1.077944 -9.564100 2.361743
-2.117354 -9.626290 -2.198965
1.920645 -3.293553 8.968520
0.486460 -0.956611 -9.806275
4.271151 4.069120 -8.027409
-1.618596 -1.657288 9.608855
-8.104003 2.306021 5.285245
-6.449391 -7.802078 -0.077009
-3.803244 8.765592 3.017252
5.943920 3.059731 7.680518
-3.223283 9.353006 -0.155156
-1.774105 -2.326500 -9.328818
1.008191 -1.801540 9.593168
1.369784 1.857997 9.938874
-7.683509 2.289779 6.195047
-1.486690 8.295319 -5.436614
1.132986 -1.602208 9.696169
0.084203 -9.830348 2.302320
7.043938 -2.243126 -6.658572
1.394429 -1.651011 9.615210
4.366045 -0.238806 -9.006938
0.759608 -6.804828 7.142620
-6.960155 1.902378 -6.631141
-3.700410 -0.514860 9.350474
5.700853 3.848298 -7.105008
-6.147836 4.238740 6.426351
9.113518 0.687635 -4.142499
2.074261 -6.392062 -7.537825
-0.236560 -2.294469 -9.859559
-6.324480 0.118338 7.675154
-6.234058 7.510734 -0.490083
-0.540378 8.265442 5.524620
-2.463722 7.641739 -5.992249
-0.943420 -7.003959 7.249129
8.180111 -5.670345 1.369161
-1.451108 3.395553 -9.188385
-4.639727 -2.915203 8.669633
-7.449157 5.778889 2.600835
-5.946299 1.063459 7.859531
7.931150 -5.078134 -3.606050
4.480704 0.172165 -8.912791
-2.028939 -0.764345 9.922809
-1.321938 0.220479 10.020329
0.836975 2.031607 -9.835024
7.017031 3.435374 -6.206820
-4.588830 -6.680960 -5.851719
-2.495255 0.230308 -9.870802
0.189942 2.416143 9.707884
8.026201 -3.800005 4.802443
1.986887 3.957579 8.964148
-0.664711 -0.674041 -10.011737
-1.539883 -1.787156 9.724928
1.769400 0.115916 -9.801264
-5.632461 -7.667302 3.216674
-2.023118 8.180639 -5.448230
-7.897982 3.547964 -4.805645
0.029036 3.966847 -9.277576
1.903710 -4.526052 -8.644243
-7.641447 3.284882 5.862908
-9.837232 -0.349942 -0.823485
5.658615 -1.055594 8.004424
-7.806545 0.960256 6.289243
0.449216 -0.362661 9.837358
-2.438085 7.989957 -5.624362
2.113170 -9.094327 3.664641
2.436098 -1.151450 9.497419
4.639035 -8.345853 2.721650
7.322107 5.536748 3.718966
2.238999 1.756917 -9.627856
0.525761 -0.429285 9.876598
1.084654 5.786222 8.198296
4.703053 8.147555 -3.557292
-9.487450 1.855282 2.282062
-1.146103 0.717934 -9.809394
6.502388 0.520202 7.513535
-5.341664 -6.022673 -5.927404
-3.535250 7.841746 5.437374
2.276968 0.943792 9.699094
-9.228812 1.997782 -3.191791
-6.970566 -1.561562 -7.031829
-3.923750 -9.351336 -0.349709
2.562358 -2.201796 -9.390432
0.685820 6.279628 7.568531
-0.255336 -9.435813 3.480633
8.990721 4.085115 -1.214597
0.318154 1.935756 9.966179
0.983593 4.085918 -9.168521
-0.253834 -4.562831 -8.913770
0.306732 -0.063609 -9.985668
6.863194 7.059986 -0.239599
-1.767010 9.680984 1.566537
-5.416025 0.557349 -8.344336
-8.737755 3.317340 4.015097
1.527995 1.352889 -9.738601
-9.484854 -1.114167 2.429399
-3.058443 8.945722 3.500721
1.886420 -4.597679 -8.690964
-0.650270 -0.605220 -10.134403
-3.406438 9.135012 -2.396475
-9.840415 1.249846 -0.460418
-6.201132 -5.132426 -6.038840
-4.696275 8.928261 0.540725
-7.787846 4.421918 4.415736
-0.002088 -0.173819 -10.018320
8.963315 -0.585095 4.456455
6.875488 0.113125 7.036739
7.486869 3.666047 5.554154
4.686890 -2.125332 -8.634154
-0.573976 -0.694127 9.810589
-2.379581 6.768804 6.893931
1.587996 6.952678 6.982299
6.877834 -7.212792 -1.717247
-2.531358 0.158963 -9.635585
0.728698 1.689970 9.835326
-0.744999 7.578383 6.725488
1.898636 1.686613 -9.793489
-4.551783 -8.769132 0.634121
-8.295517 4.807045 -2.263135
-1.645721 -2.883221 -9.470990
-2.146338 2.248444 -9.357323
-0.219306 -1.708193 9.979286
-3.342383 0.963422 -9.514935
5.189903 -7.495012 3.929331
-7.408903 -1.033305 6.911879
5.886868 7.483587 3.194724
0.574652 -1.393158 9.838256
-1.429408 1.604849 -9.762672
4.379589 -4.953247 7.478483
7.398393 6.112514 -2.275899
2.108595 -1.770348 9.663702
-3.123650 -7.285010 -6.078411
3.564371 -5.804069 -7.367413
0.765844 1.586947 9.849103
-1.645628 0.269828 9.890026
-0.297476 -3.847742 9.239395
2.501211 2.160480 9.320878
-5.323473 4.731387 -6.848046
